ply
format ascii 1.0
element vertex 723
property float x
property float y
property float z
property uchar red
property uchar green
property uchar blue
end_header
3.426427437482857 5.408697524457623 -5.226249393994228 108 58 11
-3.300090350658447 12.355858939860989 -0.4520203789585762 171 140 93
-4.087285484193727 12.834048223514477 1.5126728953791877 117 82 44
2.6432494926462433 10.305297440289227 1.5339316738601612 76 53 29
0.8014483946835109 9.717465886709249 -4.033092649428211 99 73 48
2.527316993048731 6.420414828061524 -6.959637206020253 124 66 8
2.5622917310137323 9.44884052027033 -3.6494032272572587 168 148 89
2.6065263359471365 9.970817690509739 -0.8403695173983442 83 59 33
-4.736086445802603 10.318598343685078 -1.50300230690082 195 165 121
6.318694093730504 9.807313236749303 2.6997664032811532 113 97 74
2.3679389918760343 9.782944187829239 -3.242305604381508 166 125 63
0.6941627910745153 10.399842594545339 -1.8408255131900493 147 118 78
3.5472907882817473 9.50381886912821 -3.8331509988641783 2 2 2
1.2416376101556117 9.599841200966246 -4.254288804216912 81 64 46
1.1614033149208025 9.522571562523492 -4.465666934188101 17 8 3
-1.087160447969099 9.487133203525486 -4.627943538224171 136 112 78
2.9957453609856244 8.761965048644987 -4.644707408273079 15 9 3
3.723947275517513 10.0028725723753 -1.8111275476341444 139 106 63
-4.637108747957223 10.533093232337457 -0.9073715636218507 127 159 196
2.18453327161479 13.265909152587383 1.216310664031609 158 123 80
5.061200101497954 9.40687575469741 -2.4028993825243585 126 164 206
0.685894244832708 10.037414461916226 -2.4716381191455925 130 101 61
-6.103327460490547 10.770071022282922 -1.9847538750446778 13 6 6
1.5901688116264032 6.228998175093745 -5.221565681395279 112 64 12
-12.432971213484992 14.447297131367293 -0.7562108271471876 186 115 32
1.3293772608946568 10.3526015148448 -0.3296578877805204 219 187 134
4.286555347741539 8.447174112770222 -3.59431995067366 152 169 198
-4.597834828791496 10.218804054331914 -2.0063685679589818 55 34 18
6.277064280678647 8.452361564623613 -3.409692158873872 94 67 39
4.554663390383959 10.067144545542194 3.299301683626297 132 104 68
-0.7940128232277088 12.67450122922272 1.586656608092952 250 225 162
3.7465470378469106 8.928360990740003 -2.931899582687781 11 4 2
-10.64426833779281 15.312406475708377 0.648609654966307 209 172 120
-0.013645066263248124 11.188109029542462 -1.5584849307385324 102 71 40
0.8491574155987858 9.346421921176159 -4.913575561352324 203 171 125
1.171811152749696 9.404388764869664 -4.590147786060195 30 21 14
4.59167859237199 10.375016304882417 -1.2919072592619834 119 102 85
3.9570097731655234 8.769662197564333 -2.813556694937365 27 18 17
-3.272212813656332 13.124855849106979 -3.4720390700230537 210 167 82
-5.20358546047287 12.390072197422855 -2.664622391323765 66 50 35
3.9257027236476647 7.434531041482104 -5.05086674516773 20 11 6
-6.115102905801056 11.606998950950175 -5.20723328695769 67 30 4
-5.838885786236559 10.555658825270784 -5.489077270366821 50 36 22
-3.507789015403678 12.350939369342674 5.246641630018406 105 72 39
2.5028092392813392 7.560136280145362 -4.692986381249201 31 24 16
4.128211637810217 8.365640345571798 -3.722738413634526 105 79 70
-0.3251282587174575 8.133121175351837 -4.781404483613474 20 13 7
1.2148238051282945 8.351581761865361 -4.715950606770437 232 205 167
2.039175184252991 10.608348549574673 -1.9042018330866934 184 152 110
3.482768831516076 9.599864390314195 -2.3196445019441314 117 66 18
2.7928022174980276 9.264055416983348 -3.0984533395485867 58 37 17
-12.44357553544911 14.075869620559505 3.211028572479711 97 57 15
2.0137824756050207 10.843273123831652 -2.386972400639036 130 111 81
0.7753754056629254 10.68540584210979 1.041739507374851 210 170 114
-3.03047182935247 13.050451507325688 -3.229269166043114 64 43 24
5.435695810246482 9.524903385458389 -3.3315898039960983 60 43 27
-3.59918487338823 7.9835571244930374 -5.15724016601819 102 69 39
0.7392998585319713 11.514336179023951 -3.0594596468530435 74 54 30
1.616653056957892 7.973764404452583 -4.786192382913837 19 12 5
3.5897322778367275 6.04384505328018 -7.2156628821307525 129 71 13
1.1224488462587556 7.8640235250108725 -4.978521008518315 104 89 76
-4.519808144300443 10.029212702585172 -5.261061384617631 137 114 68
2.6014196851423534 9.354656973242294 -2.6089097024994667 180 113 74
-3.1944649730968515 8.093822026696131 -5.532017760322884 29 8 2
4.21278536343363 9.861465547300478 2.451124784861895 112 101 80
0.3127557929836687 8.086382608832285 -4.9156907950203035 120 104 80
2.817591983651606 7.9527431152470065 -5.02987395196994 33 25 14
-8.642361062544005 9.748224798123173 -6.352303809471939 121 63 14
-2.744675188898959 12.060695233339679 1.3341736054058606 93 68 38
3.2344805687808664 5.782103020569836 -6.990260296554788 31 13 3
-3.5203297152912305 12.683587260196107 -0.5273670467304804 172 132 79
-0.6965010709898345 10.268523455481734 0.027002459353060747 143 114 74
-1.6478968840860577 12.200084604795327 -2.6650063202984566 94 60 33
-1.4629788209001888 11.073391222851756 1.4884355751462797 85 60 32
5.038986929762508 7.984617449365676 -3.3905283933436414 133 113 98
-5.495852340470749 10.62553350718321 -4.854700032646116 163 112 35
-1.8566868912385748 10.283745431373033 1.3541748053685239 76 52 29
-2.057174724917699 11.741057541451266 0.6675981763888927 104 74 45
0.45444938285099545 6.688778413590474 -4.676448425070633 141 118 81
0.5279476437367345 8.308309355485923 -4.830570044138085 136 124 101
3.0337725557954256 9.281070551756036 -4.429092173295964 58 37 13
-2.150387910433528 8.212571605473181 -4.880531188860661 26 15 11
0.39282840489601667 11.425335562115276 -3.0148818658562093 145 118 74
4.48023071068675 7.075248074212997 -5.198398175249726 43 42 44
1.7622851017590655 6.217489409622835 -5.184317035716094 8 5 2
-4.315167162563624 12.530086008224341 -4.26268960721369 15 8 5
-5.865673880137023 10.784953455048681 -5.109186182799841 48 32 6
-8.247824763787072 11.00417019979769 -1.0163965970259727 185 149 107
-1.1147450100630474 8.762506446040145 -4.865657987226853 101 81 57
0.00394287067568229 11.423503679613383 -1.909416973955053 180 151 107
3.573885232311066 6.970153742276416 -4.740801514515814 35 23 16
-0.06330458445707592 8.25896859992761 -5.2884718255504035 202 179 135
-1.005013857982703 7.597369788669547 -5.040641788107763 151 132 100
-4.4311863210130005 11.966765065394686 -3.9303799073510572 171 143 114
-1.6006746067947133 10.561312708155723 -4.419093691018864 19 8 3
4.209849793713359 8.622759418367497 -3.5188751791221096 132 119 118
2.245097144113809 9.506839021945385 -2.846931575399526 205 138 105
0.7244254127130733 6.304553628836524 -5.930483806558764 10 6 4
-1.6967126092784 12.063373464785716 1.4611613986800074 177 143 97
-1.692597481610381 9.791874599297483 -4.585006127788331 20 16 6
3.1104540147537767 9.20305823173449 -3.678827558185459 128 125 76
6.453083369613477 9.770122581048806 -1.7029437122948639 113 174 241
-5.088565218403492 9.839930621089733 -5.683504749420804 44 31 17
-3.4617067141287965 8.507216558660554 -5.634997053505907 89 62 32
4.682712752409532 5.088822877021677 -5.23489660461119 98 54 17
4.04035099210899 6.8223855575534 -4.665485314480335 23 15 12
-1.8507081224716377 1.3212369642599349 -5.615479815890327 61 53 32
1.2764015709235845 5.778734057819447 1.074178217942319 58 37 14
-3.5725071388663965 12.120074430137164 -4.609324838587935 182 152 103
0.1623863500797695 12.534816548317515 -3.5904716422007716 123 95 58
2.811424785950127 8.692183230011324 -4.643252835540719 38 30 19
-4.321067809503483 12.381663673607015 -3.7619902897385984 14 9 6
-2.9856782584141395 12.696305451623605 -3.368705961607094 65 44 23
-3.7517004681033095 13.302465551574036 -3.723141326274344 134 100 52
1.0400555228021195 10.84463395709037 0.8528694723702881 178 144 99
-1.292810657345465 8.020843865702641 -5.362475186968165 146 123 92
4.104979691401044 7.450458342093007 -3.621711455054446 190 153 109
-3.904373946222785 8.006299726338746 -6.076093946141792 18 8 6
5.7869050308055705 9.083953633564251 -3.1498592567450783 55 38 23
-0.49100529489415384 6.6413963906005336 -5.660198739534855 99 65 34
-1.4291098297174814 11.885514531944539 1.2680782416063001 153 122 78
0.7392998585319713 11.514336179023951 -3.0594596468530435 74 54 30
5.8908564226747915 7.900477884113585 3.381528241581008 115 197 255
3.792324470796941 6.08317080132064 -3.800042149645106 81 51 30
1.6108357404964653 11.422461626913451 -3.166255532686094 64 47 26
-3.1222828999078645 9.218923436251886 -5.604089510688349 85 64 46
2.396776739541869 5.965885021042067 -6.0189309310219485 125 69 20
-2.5780472643417345 8.838618418841381 -4.494442004264658 53 41 34
-6.135970406808971 11.920381502913974 -4.931193441657632 189 127 23
-12.710470389211872 13.830337935637774 4.282038317831352 209 140 46
1.611181436167383 7.99825648724044 -4.682261983300204 97 73 46
0.915450537716361 9.887622058460778 -4.270129402891853 34 24 13
3.302872402785809 12.675590785544978 -1.6686683046006148 129 104 59
4.7694454862902385 7.609462594807315 -4.657833722806114 4 4 4
-4.411199970965852 12.715457958896275 -1.989311065736069 86 73 60
1.2917776403047372 10.782905158678545 -3.701475345934464 152 124 84
4.328159391787291 8.65821273934891 -2.843248811502515 123 94 60
-4.402497224522682 12.526240506053508 -3.0219932832270353 111 98 80
0.4765696524376554 7.759832794747776 -5.085069621286594 231 207 157
-1.0093848675363242 11.634658801960814 -4.398512621053947 41 27 19
0.30464899941330614 11.62320468454033 -3.1450526588029097 142 111 71
-10.549208565570941 7.766921744707317 -5.238208176510403 29 16 10
4.6100737978692425 8.292840362293884 -3.4889913933239676 64 55 50
3.2180165837057473 10.196158673561234 -0.9852482665024515 162 129 78
1.4308772949767128 10.519683120003787 0.3663103096553769 126 97 58
-0.4739156873782202 8.209736856387703 -5.022292903503648 106 81 51
0.8236136485144913 7.918216865127264 -5.157155563975357 44 28 13
2.069083253544067 5.949858012276413 -5.257265381146038 128 68 12
4.704005970853911 8.63975309607756 -3.351249809487542 11 8 7
-3.5725071388663965 12.120074430137164 -4.609324838587935 182 152 103
0.1092567608604534 8.81852705514597 -4.924429106489987 19 13 9
4.444529211999794 7.073675068687238 -4.577763518089454 11 6 5
4.740580057176304 7.486823270586729 -3.5815729815941735 109 107 107
5.829509475993736 10.368044277370279 -2.2576654966595817 95 132 168
-14.624040455395365 14.784807654516726 -0.8751646276730454 158 88 17
-3.483619103467753 12.559465861260604 -2.9775809117592407 162 126 67
-4.730531574066791 11.608174394806632 -3.884614939285662 9 5 3
-6.937857032204258 9.723017631459209 -6.281306795240202 93 57 29
1.3666198074955775 6.768091579750468 -4.856284077991316 63 51 35
1.0299902431497403 10.112643761062152 -0.8534548413115245 109 80 46
-6.549610787301219 10.338004591863715 -5.058693555848076 177 118 11
1.7083348981071216 10.103750242393794 -0.9656678325489122 228 187 128
5.79310303750561 8.950481008603914 -2.3873146249212525 79 62 46
-6.157242669889265 11.235693280934049 -4.899002871196987 98 50 15
-0.12974054013016645 8.746006265928976 -4.712847656956958 28 17 9
0.6111991861566252 10.474373956366145 0.08398746613435226 139 107 64
-9.574208350161515 9.988752146465256 -4.463804014029342 179 141 95
1.1221408536799606 11.174965824256272 -0.2280661232517257 165 136 92
-5.3394504818856605 10.81307325681305 -0.16921642523916064 58 19 8
4.7635541869314455 9.497850471587203 -3.5301831260902947 57 39 25
3.288573947470745 9.372369684996086 -4.3738234525717195 39 26 12
-0.013645066263248124 11.188109029542462 -1.5584849307385324 102 71 40
1.2000822606197041 9.480426411416307 -4.863357652670369 74 45 18
-3.947844631537132 12.757744629218012 -2.045688617958711 114 84 50
1.8674118158187827 9.617105342566163 -3.6463844291963636 69 49 31
-2.8870818708994994 8.438607602265394 -4.537733918538468 33 23 13
3.408445455341214 10.613951236404338 0.8342747726473565 148 115 64
-0.7397245196244366 8.506614657505681 -4.679632662400114 107 92 69
1.480164133782427 10.350933137663716 -1.772335194072239 97 74 43
4.222164616289013 7.896840390935933 -3.727231685618399 142 124 108
-5.203705327521317 11.863609110956865 -5.028743986133067 22 13 5
1.8575307856506635 8.119731943862256 -4.8227492252038395 45 35 24
-5.030035944354569 10.60413531964718 -5.4837239391075885 38 25 16
-1.5125994943218717 11.600814409991704 0.9795640114046124 83 57 30
1.688871092808046 9.434532613586168 -2.649249633761097 203 137 102
-9.317897121528835 15.665915129755279 3.1363235481726264 157 128 89
14.175333868811986 24.072743438699934 -2.7535747506538977 111 154 194
4.017814678103686 9.059620995255594 -3.11184494789497 135 109 77
4.891462720571964 9.63818408627887 -3.070976731025774 97 68 40
3.973348032205429 9.11695703954289 -4.747677311283469 37 23 11
-2.671928873118008 13.505169251973765 -3.2311949301699157 86 55 24
-4.0531797024256955 13.277411188267772 -3.4612830238459478 105 77 40
2.9205789270399585 8.001982523220756 -4.684933301720262 18 13 9
-3.5442509664197797 13.045928367594891 4.394343548335905 132 97 55
0.8216472779101135 11.174033448670558 -4.802260142633753 66 51 32
5.255969179628928 9.341927986780748 -3.2084197930666645 78 58 38
1.158294416078927 11.502583225429102 -2.69761577280057 101 76 46
4.578776844859345 9.498468041649827 -3.2572918750080113 48 32 20
3.547337984363063 8.607866105994551 -4.5947317375207835 19 12 5
3.729844973305164 9.879441721021651 -2.1302576988324615 156 118 69
2.0892060965987582 6.406141435136119 -7.0319048746483395 120 65 10
4.315816309839184 7.236265499293038 -4.000387260429246 157 107 46
-2.8449503390577897 8.258650232234869 -4.627332371626893 13 9 6
-0.21901960806960075 8.14465271038498 -5.227355581970321 126 109 81
-1.9509520640823406 9.418394442604065 -4.75179027623321 130 110 86
1.1351619631823313 8.386455664892846 1.594877214334235 170 141 101
1.1275551936023054 6.367790290898286 -5.917804180938058 14 8 5
3.544385792085633 8.925696825843215 -4.57492979543645 10 6 3
4.569694721033302 7.152827088651598 -4.595828174759515 26 16 10
3.784841201386357 9.121348586127766 -4.462920038085206 14 9 7
-2.4574032328520765 12.331767138508605 0.9051882804856909 117 84 51
2.6904867287091454 10.306855525997848 -4.430996842540749 14 10 7
1.9888014170313875 10.426882149449439 -1.1457389520251247 156 128 85
-3.629769202969279 8.514927560413184 -5.394352250444884 71 42 21
-6.583216953520923 9.607935926350443 -5.314899110955462 59 43 21
-12.630128305596633 13.693970657607379 -0.5256713151826999 179 112 26
1.9747369809481887 9.8597608165391 -2.6547217090671547 252 185 144
-4.290840019588817 9.038927622659573 -5.577006591376552 70 42 26
4.558263798277097 6.838851442417966 -4.624642869524586 48 36 33
1.2641671819520237 9.891712781630657 -4.053551952753044 69 53 34
1.871189201322187 8.204390279950713 -5.009568321206729 46 34 19
-13.808165033321483 14.175916588559362 5.345193795632902 199 133 47
-2.201474265060986 9.715587880397047 -4.98680977697181 20 15 11
2.5646490216621403 10.561711608920746 -4.130304725731675 71 55 36
-9.331337283294932 15.296988997744945 1.2161567692833168 164 213 254
4.221144272836138 9.013289282471384 3.7236395388960024 128 102 66
3.4111935563429325 9.62651344354493 -2.7911595436875647 86 38 4
1.7031688192301901 10.673468004833104 -1.1904802537098955 116 90 57
7.223525279753013 9.547354944929397 2.7046394475613695 85 91 103
-4.506959845080063 12.710029834715971 -2.859447392915606 54 42 32
4.337503278557917 9.90381454724689 2.287392366342765 121 180 236
11.162576755444647 23.532872544831395 1.337137580486374 91 127 160
2.912662875000658 8.383513821879172 -4.852509803358846 18 11 7
4.143860848574755 9.68854081947828 -2.747339933956053 124 187 238
4.428029376591375 7.199718292681979 -4.812382621080433 29 18 12
3.3058650133834506 10.272478821572875 -4.926910695614353 46 35 22
0.11074654353186476 8.235356746102852 -5.056517715005257 60 47 31
3.8474466542169385 9.334050263173488 2.6954118716234703 172 203 226
-1.604857395919144 7.317941320967739 -5.239026721748544 19 10 11
1.2071973282650967 9.62002211475519 -4.262898186666668 108 83 53
-0.06320144054434292 10.540449633722401 -1.5109377897882759 102 71 40
-10.466381838244237 16.633765684982116 3.7583629791309456 137 120 91
-0.014354017162455296 10.803560999606681 0.7127034963784152 137 104 61
-1.7334680179758566 7.916178965608193 -5.393183359395291 38 20 10
-9.621118490990526 10.123518845258355 -3.9208044741999513 135 80 6
-5.976439255263444 10.60688493671684 -4.895304887497435 137 89 26
-2.5973444680446685 13.19411399403904 -2.413523089035657 86 52 17
1.4723230712698943 10.128811941923782 -1.5019971154403524 196 167 123
-4.180264382351666 9.322575435712409 -5.234631898651098 10 4 2
3.44996167388702 9.510655163040733 -2.924354159318837 120 67 18
-1.688143145892663 9.327058520673484 -4.735493661842309 106 84 61
-4.5955241133085405 12.233388589558455 -0.5710584600473659 158 196 228
1.3570238347486467 10.23421739649783 -2.598746948519092 160 132 93
-6.1377306852847235 9.481303812400578 -5.296255454092996 19 12 6
-3.2369165572548204 12.54862554890047 -0.035696768446209615 162 123 80
2.5027677300305298 9.09443010369586 -4.68577263434186 38 27 14
1.6301997802371293 10.57934476580533 1.0663140202979708 210 170 111
6.2150040589627 9.255482006708444 -2.673023701112503 97 144 200
-4.0546409909030965 10.636631640668522 -1.9408984901828323 72 53 35
5.131979238039628 9.477584338142238 -2.9484752988728635 180 185 188
1.5724079312058896 10.213861779050045 -2.5216436461829286 112 89 58
-0.6862978800138361 8.888102674247639 -4.753039153832866 86 66 42
1.7802515947042936 10.082287666191183 -4.737204213087029 40 29 17
3.173980865559904 6.676911642993816 -4.141908437538212 101 80 55
3.108662123303561 8.407053880589432 -4.699242635999039 23 12 7
-4.404317679243463 14.447677101106882 -2.731684308412706 114 85 47
0.8856493753203917 10.450916993407233 1.4748631748055407 59 39 17
2.1714357910401736 9.095834964644755 -5.028520667162229 48 38 24
0.23437836148390187 8.061221503771272 -5.140228516056324 39 27 11
4.485143683109948 10.236105450144095 1.2946059295316228 128 154 183
5.4059765571857605 10.876260890132977 -2.2060527972539297 135 177 215
-1.2189866304991357 11.182519413827713 -3.287377462691186 153 98 59
-7.682319156596523 11.197738148961509 -5.005495894209688 7 5 3
4.337850121951053 5.366119909658824 -5.26418146703387 108 57 13
-1.447034211712077 7.399458613154029 -5.143370598200292 47 27 10
-4.062650494573058 9.384278768112454 -5.191265798589041 36 19 10
2.0787067804075052 7.140552751423293 -4.850669975983303 37 27 18
-1.7111620752778138 8.708893097242782 -4.901604742519265 75 58 43
-6.451252625852591 10.005714790968229 -5.002372766132262 31 15 2
-2.368454221327247 11.931161266364942 -1.2357518228630477 84 55 29
-0.2340254993919437 12.033515936228317 -3.4362708796344172 62 44 24
2.500227191800773 8.858323394301545 -2.89288488003377 97 57 24
4.065141640184264 8.899747750220898 -3.5360516435178675 125 100 74
1.4237179899421846 6.4979758813801896 -5.455251921293761 128 69 13
-5.782936724991343 9.757658586875603 -5.523826633774037 113 89 58
3.9818232012393358 9.572380477676731 -4.366174819318039 3 3 3
-4.821849661771089 10.817612567700507 -3.3330213888216242 51 34 24
1.6780918585996196 8.783713039424896 -4.714399135521205 153 131 97
2.7800283608115754 10.618431719443173 -1.569156219015601 69 47 24
16.559209251621244 29.87304906386016 -2.7918027650356287 110 231 255
3.7625138659806994 9.01678214949439 -4.416582031949314 7 5 5
0.999688326556928 6.76093823145526 -4.805181187052628 47 35 23
0.6563296081504489 11.676299166210311 -2.0552182711179805 140 112 72
-3.2033629620633 10.859183515023433 -3.684780129671555 15 6 5
3.8249726974557205 8.587612318458804 -2.990331319755326 137 106 72
-5.453515056090345 10.232510631721482 -1.996216015899444 111 75 39
-0.4195088273816867 8.283591817663114 -4.7312528186949585 103 81 54
-3.4484210795115895 8.967980243020326 -5.757982658436721 83 55 29
4.0153695511455405 9.019521429547769 -3.8762915793149766 157 71 31
-4.386623186617116 8.2043854381603 0.823749128521872 160 218 255
0.7482538551261867 10.470020857322623 -2.9688312499983573 73 51 27
2.8676387019559924 11.1355504942122 -1.234329871902598 83 59 34
-0.822868266885492 9.364738319480871 -4.6971078204684975 81 61 41
4.469689355948482 7.388223947457799 -4.014856282507249 84 49 16
4.166265435806858 9.140772550667016 -3.607727556815424 115 92 60
-6.583216953520923 9.607935926350443 -5.314899110955462 59 43 21
5.651938260374991 8.777073487622335 -2.977926122372222 75 57 48
-6.223668709102889 10.249889778019355 -3.321155755524524 4 4 4
-2.5310334459815156 10.716105553474424 0.9456189211713174 108 75 42
-6.3683232797306175 10.27500341882972 -5.0620172409143755 48 18 7
4.659653905605578 5.096271297036964 -5.674939358191962 43 22 3
-4.5684763297122775 9.729584537945394 1.158949279325725 43 40 46
-1.9695964264768857 9.66922494440052 -4.2056910124092 52 38 24
-3.0500464447370192 8.602894319061404 -4.489447010554602 21 14 7
-0.1613753387181654 10.463814069767597 -0.18680982149793682 110 77 44
1.755355001872861 10.014018965487095 -1.5896854549156063 84 60 36
1.4503719959908563 10.838060785459854 -0.7330314930117077 122 94 57
4.151469065158266 8.963180183387179 -4.3951496662151115 12 6 5
1.3214231871967421 9.550362811450166 -3.98162930844112 50 38 21
-1.5823866929637616 8.085080636663887 -4.678886626342962 115 101 83
-4.924948560431547 9.639205475390236 -2.2471188677488665 53 35 24
-0.2645850085676025 10.9483848891772 -1.4236246568330535 152 124 85
-6.639225280016752 11.475981916042931 -3.9469903409599154 6 4 5
-0.45400334762976496 10.802711343246756 0.6056653589076517 142 110 69
1.4217648927811337 9.838364698331755 -3.992565657871759 54 39 26
-0.7105945695590662 7.072283671759131 -5.041335051613598 77 55 30
0.8244111782943471 9.764839854943178 -4.059659541810906 75 54 32
-4.982800570135102 10.586229899995994 -4.3823815113762805 43 24 6
2.608880949113148 10.080634641265709 -3.2862899160169237 46 37 22
-0.49311464487951456 7.706769420527906 -4.851673013194461 39 26 17
0.08569506193523277 10.01774838807347 -4.346608445797511 113 88 58
0.3149119059289025 9.51159105779825 -5.079541663947352 211 186 144
1.7853995230375466 10.526029470745693 -3.1891317876061094 58 43 24
4.654995320763764 8.698831081117387 -3.6186773466889184 59 48 41
-0.5045888611565894 8.551955963091444 -4.793052529398483 81 59 35
4.552305042991936 8.504330548885696 -3.5878676104241065 37 31 29
-5.143771297151584 12.307180489906093 -2.8074966128476597 25 16 10
0.6176735567366223 9.600457842227975 -4.741318043694129 161 145 117
3.213083624676128 9.671612623962645 -3.194226448802637 20 7 4
-10.743099508600823 8.429187885982955 -5.9447946340626565 146 94 38
-5.751032408308449 10.91718088421329 -1.8114369210846328 105 75 49
0.037448760208206366 11.420358505668105 -2.277184136532358 106 77 45
1.8001134459245793 8.555513842616833 -4.427838640172442 39 30 18
-1.393551114283761 13.50853710215942 -3.415844846304786 52 36 20
-4.496802216721809 9.909874055878277 -2.1460236259174916 112 95 70
-0.2342173340301284 6.719147695829149 -5.512230519500628 30 14 1
2.179456023239658 10.057948869484399 -4.146515039253978 15 12 11
2.107033484315414 9.919889799873715 -4.453308962645016 171 147 113
-4.237871426478673 13.059724008561439 -4.830474913394402 19 11 8
-5.198796454008323 9.991953556434671 -5.482891243169263 37 23 16
1.0136334127657955 9.92304489422696 -4.154402615445739 33 24 11
3.242437972548987 9.561450573609275 -3.234935642538537 144 100 33
-5.857684129408389 11.245389747824259 -4.67987999341056 185 130 32
3.8275699420493123 9.541071156445527 -2.8071146398842726 36 16 11
5.414403872755386 9.345581977356408 -3.0316404466122053 55 44 40
-9.471717604607107 9.823111060340853 -5.816497421473784 171 105 30
4.298583828452333 8.916185074855788 -3.200779645899965 90 70 49
2.2606818644621884 7.233056271936583 -4.86749938798617 25 18 10
-1.3081633459049757 11.10284535951672 -3.340391337508212 142 87 54
-6.379853486966225 9.122491838219728 -5.682484618040871 30 15 7
-2.6618286731572685 7.553943080534611 -5.222393982636809 141 103 59
1.844901070437607 11.00757873650881 2.2292639948543 119 93 56
1.3114648230123682 10.145295921825449 -1.6121271155791521 107 80 50
4.095682466184596 12.97130709518892 1.8681186904402405 127 94 49
3.551278406178965 9.160209813149953 -3.7029058202435015 9 5 4
-4.140315423966315 12.891702540311911 -4.588637665528855 10 6 4
-9.850835950223425 10.452369703795238 -2.9872540592763106 193 140 74
-1.8216344987095965 8.378247823099942 -4.674924100941336 43 33 23
0.1887304699037966 9.980304897655389 -3.6322725008774315 142 120 85
-3.086949901223479 12.908738502142354 -2.7636715638402407 87 57 31
-5.143224381320123 11.839882232754716 -4.0767888840844515 105 65 24
5.970777419063088 7.422469731393907 -4.6030924370790816 7 5 6
4.398353655725026 9.267709805994201 -3.13642861314606 126 100 72
-3.3929597887996543 10.752388670062187 -4.486920341645047 36 26 17
-5.964871982417474 12.666938067373657 -4.2289810475645115 50 34 24
1.8063863685008053 6.793934832715889 -7.857199852757311 141 81 16
-4.218944383570742 8.12324179485992 -5.537311922283823 10 3 1
-1.1273963284708461 10.167386329724811 -4.807165078987902 117 93 67
5.013395570530913 10.769770123539912 1.0550362860949423 147 203 254
4.885773906980782 11.65071584572699 1.0817537885683723 131 163 199
-1.077796701884948 9.951908835672482 -4.621736702286953 132 111 84
2.7647374302049714 9.80875901242293 -3.3925539811876915 125 95 58
2.6541641804043294 9.495747480271994 -4.0410234277428465 100 106 68
5.773518569015266 7.98033038885505 3.0485298863030006 97 198 254
-2.2300430852780537 10.849173423240018 -4.018695179949944 42 18 8
0.35656369581098923 7.945894927604329 -5.3094640475034005 227 190 139
2.352301436109525 5.760887636663235 -6.067534811497414 123 67 17
4.3249807601205426 9.554426288042558 -3.306405807202189 31 19 12
1.1487795858650531 8.228415290088888 1.5883918801955919 65 41 16
-3.034739894755092 10.570488234694938 -3.584398183325357 126 81 64
0.4535384925672964 9.113555563767486 -4.4660652328441435 186 156 110
1.723330731110291 12.065386591826236 -2.968096591336018 158 132 93
3.2237832814254457 9.08551697085133 -4.619378463698982 20 12 7
2.677060597027995 9.01536037761411 -3.4567356430144094 106 74 34
0.3825255153811798 9.741180446262652 -4.504059181816208 83 63 36
1.39050420205116 6.938896305036687 -7.804249781237492 4 3 2
-2.2167544648234365 10.022766196662834 -3.3518823465238747 141 75 48
-9.545204452657252 10.329705389997384 -5.127139937613434 26 14 4
3.669702872660711 9.739019976721877 -2.6066061378510628 74 13 5
2.5505253807647943 9.277835290063223 -4.646508158918589 33 23 13
-3.1197787211843395 11.374923389976251 -4.457872093496458 125 100 60
2.7164809737522826 9.430928261137948 -4.437121262041924 96 72 38
2.842661843931947 9.02359557018595 -4.635563910746258 51 42 25
1.5297736293691422 10.290144917937763 -2.1998590028302214 212 184 138
-4.914364578618759 10.499206391402197 -0.8453005242638061 28 20 11
2.2247547938112726 8.397090286623449 -4.598999355262804 62 51 29
4.497171482835321 9.477643549487247 2.097321396506778 149 207 255
1.05799814684239 9.550894971510601 -4.852392914733706 120 70 20
4.602180215728049 8.723422596896315 -3.6927844132126637 154 134 114
-4.563952001359738 10.843659241320113 -2.041674112867096 23 11 6
-4.271315099308256 9.39801823749277 -5.184796466407874 26 13 6
-4.988070124361295 8.6036175378089 -5.304919854181871 21 11 4
-0.5933835859926445 7.464793825629114 -5.082428470032171 187 167 130
1.7276874684358778 10.60206028284737 -3.656323339699171 152 128 92
-4.253676886932279 12.744119901544682 -3.8450574783103204 81 56 33
-5.2573007961390505 9.866579161881939 -1.9651100939890083 138 99 59
3.7815324698172246 8.077356526768874 -4.803390058661583 23 16 10
1.8434593912264667 12.177363353990126 1.3339943656436921 239 199 140
4.032570544171351 6.312776083882373 -4.701428699481532 67 59 50
0.943139020611781 16.319335613207173 0.6023966753078253 133 98 49
-0.362145361538302 11.558623018395798 -4.310902912031938 147 126 94
2.389562763574497 10.555191644978066 -0.829167186683549 92 67 37
-5.867807816394228 9.410337459065609 -5.521416471476352 19 9 4
-9.541275012780469 14.529146447244456 3.147423524160045 157 176 183
2.266519199170587 9.574873535090381 -2.8623144349510423 205 138 105
-4.715561048306701 11.675175981395984 -4.126277961201953 13 6 5
-3.530299969002013 12.826202278667866 -3.2977940488685515 103 70 32
-3.276722228486838 12.658894345220416 -3.31659170071988 113 78 35
4.29831181922323 5.470035533162225 -5.840286066339699 110 59 15
1.7689446424726574 8.33131479567554 -4.712578073394795 21 14 9
-3.081877042723272 8.850212462610076 -4.607642000781945 23 14 7
4.638815831142852 8.04169121638405 -3.5732945701079393 88 56 31
-3.378329502401962 11.929631910999847 -4.646863655540771 62 53 43
5.015023094596888 8.006252704516523 -3.574248705791839 175 154 133
-0.5522869381639735 9.78764196598632 -4.698298206479942 128 107 80
-1.6312958472901182 8.285843725163296 -4.728334529783097 103 81 49
4.80404541780818 7.728350085817383 -3.3549823391582594 70 63 62
-1.4009398525387224 8.083685091586384 -5.142762004684222 159 133 106
1.4657289505349826 8.936547731506469 -5.1335449351118205 97 74 50
3.681783012664503 9.717476506300628 -4.282238518769878 3 3 3
-6.772936853284335 8.59644666433028 -5.473727898279841 127 89 46
-2.360458587246364 8.489224786723788 -5.20119653523183 118 96 64
-5.550441710303419 10.508819231759206 -4.9879030731900125 200 146 30
-0.4968219458935606 10.91070456855426 -0.055646937537308906 224 193 139
2.9072705709014817 9.326625700488446 -4.005549063744342 80 79 49
-4.970733181231258 11.410507281091137 -3.953493700792456 105 65 24
1.9491921401438672 11.804706577032146 0.9766821038675795 157 126 82
-3.5772149047389172 12.522939031752786 3.9681495910638307 116 81 41
4.486163484406726 9.637918322566426 -3.35443306060791 81 60 35
-2.1655373441670753 8.556802186642503 1.061045971066368 254 254 255
-6.878785301566864 9.407095709973811 -5.37705937163442 24 11 6
3.473078630788156 8.371558444706205 -2.8675186606559366 31 18 15
-0.6426870677635641 10.278225673442 -4.323167650908051 68 50 28
-4.398196045870125 11.797321251412264 -2.132615083539829 18 9 10
2.6235298857361187 9.40389048019341 -3.810781310828145 70 77 42
3.6574128881610446 9.418114168268389 -3.7921986819166587 9 5 4
-5.464627599131267 12.736489243086124 -4.745438446936585 80 36 4
0.6739064374039115 10.623072478508972 0.2688841077767767 160 126 80
6.085492349397267 8.518399345979855 -5.081495272281896 32 26 26
3.0894867144508202 13.249072195439085 2.3373676772309873 95 76 45
-5.046131992155321 11.23705488574414 -4.697967573934896 29 19 13
-6.474308549026329 11.886251235618094 0.07037131693832491 169 83 24
-3.489197101183782 11.744799631459049 -3.643457913513401 13 8 4
-0.36637953721766653 11.130060973027913 -1.2063675685553583 114 81 46
11.81584876203354 22.379897499024114 3.6000201106100755 153 230 251
4.493271378009254 9.632377077291327 -3.1231871458691454 28 14 9
-4.152085859623161 11.4076978480469 -4.5972647847069865 211 160 83
-2.280568424592395 11.66690049556699 1.1506040825324302 127 93 55
4.524571100311929 5.276101391392098 -5.679334041551601 117 61 11
1.43813973359384 11.109384238760914 -1.2013098361428494 188 159 117
1.467195134300873 10.57870519040945 -3.1198589109087744 156 131 94
5.464224563838706 9.29853894428934 -3.208378602098279 80 58 35
0.7010915010558879 6.493682478772994 -5.241492017041491 127 95 51
6.329678722936573 8.760222354096706 -2.8544382453334842 18 21 24
-1.6689661745382145 12.09758200929921 -2.304041429199194 96 65 36
1.823225230190997 12.075761582308063 1.0826579366896083 171 138 91
-0.46216749068209345 10.834805789333217 -4.2785957532020165 15 10 4
2.7658194412998496 10.587799282876853 -1.5685532312851007 69 47 24
-1.0303615890667037 7.526207418434499 -5.092901310043732 185 164 133
0.024329807185119328 8.016569068585293 -5.165335923949348 84 67 44
-1.02549774502032 11.693567527165992 -1.22762100453331 103 72 41
-9.519807263054341 10.450357731787511 -4.946492343913344 139 107 37
-5.892887363274703 9.706016885249594 -4.929236395145738 16 5 1
-4.228509693978897 14.99651447745441 1.9549305212389216 145 107 60
1.5860843300227847 8.131043503610949 -4.5931913338254455 30 20 11
0.5865804703180396 15.194137371025198 4.930407718591691 59 41 21
6.078823000131802 7.597384751414728 -3.4523377020477284 29 25 22
-4.754418364954722 13.459209869430387 -4.5439802801813265 15 11 9
-9.160453249101295 10.087839247258179 -5.345688933701679 31 19 6
1.849144409953198 10.613003352398483 1.1511723347980918 89 65 37
-0.22997124895106494 8.502352140124252 -4.7539979561693855 14 9 6
-2.7731808563331835 7.957237050383376 -5.149607495339699 136 102 63
-3.664368317669474 11.76451383623691 -1.9224868550759238 112 82 48
4.120124070275719 10.251182088930184 -2.216159171337181 156 108 64
4.114302622892677 8.842539844036025 -4.176053040707754 70 43 22
3.5105217373534283 9.339154608023254 4.372161179259082 136 102 57
-5.93045007993877 11.54844621501023 -0.4458005880646739 24 14 10
-3.60516346322288 13.08635184115432 -2.313919051873274 181 143 94
-10.680761276297703 10.520060243576987 -4.834972712564929 22 13 6
-8.088385557963633 11.078631491604218 -1.6408638059484075 122 77 36
-3.4765370771317863 8.054188130746834 -5.585659491277743 150 126 88
0.2590612505602869 10.82601576235182 -1.1868050794248226 115 85 49
4.87733431098852 9.183395232200116 -2.5104513859047173 54 34 25
4.305155388125683 9.920018753924142 0.013068714095686627 129 118 106
-0.8701536169437806 11.394559171974588 -4.364134297293278 13 4 1
-2.823857858801475 12.475567679212308 1.1189061621537921 75 46 20
-3.3236706444298485 9.321958604701559 -4.326616985415924 27 19 16
3.458538152872378 8.692788142012475 -4.594741591770169 12 7 4
0.010466919013353233 8.620272774643734 -5.191532316122625 166 144 111
1.3044920834837432 7.245606254264155 -4.821917155589353 101 81 55
3.1670786285947994 8.471111161450002 -4.646833484552646 65 48 29
0.9349307762647318 6.323782145280674 -6.051345726617089 71 45 22
-2.3466588462466973 12.223607757468292 1.1282632390838696 58 37 20
1.2010949756341873 6.4540910784044305 -5.172169534691999 12 6 3
3.3368201819461127 11.743388995821277 1.0804955699742869 141 110 70
1.6488220612622804 9.577099604175968 -4.368647716557202 20 12 6
3.3140561280913308 9.41724043388967 -3.042061982807225 188 175 148
-3.9957963510993024 9.0938626415779 -5.547612787932612 134 97 65
-3.592843521931365 8.096963652025382 -6.324959581617838 114 76 40
-1.1050021533972336 7.861836082493261 -5.081556501492315 164 142 111
2.5738677869820754 9.879987967463457 -3.5216744320991955 198 150 82
2.812028672528768 9.29162407260247 -3.5137075796868227 120 78 30
-6.819853141128896 10.645996042090983 -2.9152607824407566 12 8 7
4.765754648542027 9.287733089237127 -3.150685181210413 63 45 31
0.616052862085388 13.344743841556426 0.28384270295228026 116 84 45
-8.801095333959367 11.698039086763746 -5.013764608946998 9 5 4
0.711693489929646 11.491898561720642 -1.5922604984772026 104 75 45
-1.2359842549253013 10.436195087121277 -3.383275865782321 144 95 55
4.3876708380599565 9.114780351643725 -3.260321617465221 55 37 23
-4.356670605461688 11.838794077864526 -4.727824654738 204 174 120
-3.114758964360297 8.773767505819063 -4.53081693147702 24 15 9
0.7074742139196352 11.056517925235651 -1.2175558401664515 143 114 70
-7.3278365171081745 12.270654100869 -1.1623583364561696 128 190 237
1.039962133419089 9.685877225758425 -4.782006428376206 113 82 43
-7.469247736277367 10.943687673187894 -5.2876232974475625 48 34 21
1.5004625251640031 10.618808158564386 0.00837601925229067 223 187 131
3.307061667910147 8.37478624510223 -4.663921505117695 26 18 12
3.318691445445484 9.975738179185738 -2.1702101477175653 121 61 10
3.981749535572203 7.019543557896473 -4.633075608353165 20 11 6
-1.1285323996337664 8.096819579388713 -4.784767655260161 190 180 158
-1.994585259357086 9.495141335869707 -4.663401656659792 9 5 2
-2.1990417459989255 7.906347348770973 -4.307071338869524 33 19 10
-2.7921196984025376 13.952255618492844 -0.4660391732575791 93 62 34
-4.298326041531162 10.60286890323565 -2.125430353678532 53 33 11
-12.947692897350413 14.251909246164814 1.0572120749282246 203 134 47
1.500951874916849 11.021988144563414 -1.0642145393041262 217 188 138
-11.289196257304104 16.75276132014426 4.585192162491185 152 115 60
1.7089424238878441 8.28740380945144 -4.735160969377154 80 54 31
1.5781000229235245 10.622862361890405 -1.1009148707824699 121 95 58
2.7803725507061388 9.63167268365783 -3.8596820478307463 49 47 20
-2.9804071916021813 8.920432170577726 -4.719450689678253 36 26 17
-10.219442692530833 11.520754325831547 -2.4460879020480086 99 67 31
12.327056591737035 23.37401653829793 0.9670175162225155 154 216 245
1.944438901713589 10.612802797907113 -1.2792246336069664 166 137 95
-1.0522137778478637 8.412753922125352 -4.782711077396008 118 94 59
2.801847288038352 9.077140058896628 -3.3936967638424753 42 29 13
1.952193840316535 8.796924420856055 -4.438660319562584 28 20 9
1.3727522680014865 6.8620220918999975 -4.842532383061808 83 71 48
4.5730652387026485 7.592232962916719 -4.541659848676285 84 54 27
-1.1261365882918764 12.234441800074999 -3.050737449393658 136 110 77
1.560815326789086 9.916732581018865 -4.688859463485971 15 9 6
-0.3195559131736398 10.514721219490015 1.2141838133620273 207 172 116
4.132806070604776 10.784765458284719 0.374304922967036 156 124 76
-3.1255166960059633 12.818946030630064 -2.975525930481262 83 58 31
2.8267773153954328 10.901799761540559 1.147501108371704 73 51 27
-2.9499268868838557 9.232488940476241 -5.418489634870665 15 5 4
2.999979695225257 9.37464924315501 2.494536731494419 121 88 45
3.130526383341231 7.725766638695074 -4.532076975884055 23 15 9
-1.6367579707759008 11.950526632071417 1.125368098359063 103 72 42
1.4272792083896264 9.955349023034659 -4.281534102403869 109 80 45
-4.357712342309321 9.017358555342327 -5.934668427083559 171 141 106
-4.889611490708781 8.831365951982832 -5.1050230497173406 58 40 19
-4.602983311313596 9.38276215246066 -5.578086568027671 124 90 56
-1.6523173224332046 7.429307055258546 -5.381627017507234 17 9 7
0.8861931313432976 10.35557035914392 -0.49138557470154504 116 86 50
1.6872535174531342 10.852733498769675 -0.06641621403972461 163 131 84
6.919331187673758 9.6614691221385 -1.7656759494586616 72 95 123
-0.5631593512134934 7.728840810000133 -4.824270143930166 18 11 4
4.1225717876785435 8.142308432725041 -3.5727074936183523 122 123 138
2.560124618209754 7.809287934604606 -5.068679429173488 67 50 32
2.71398553334617 9.933523099481548 -3.4918154836968314 68 41 11
-2.190569110856814 10.791963792084575 1.1298163991892813 97 68 38
4.161557886837707 8.539056588401749 -4.726027027269832 12 8 5
-9.589164707209626 10.621237979873072 -3.985021979135345 155 98 4
1.371498765550024 11.295339903610905 -2.7791082970183383 142 114 75
0.78768089497205 10.473712911456614 -1.7503427801143887 105 76 45
19.68024446578847 29.521657077535018 -1.8597703439159798 25 150 238
4.606488949812059 7.377042989571723 -4.50920444652033 5 3 4
-4.16452211768444 12.466051647093472 -3.276575361395613 19 9 4
0.09297118157388594 9.64054315861933 1.279459513782073 65 38 11
-1.6703293549384224 10.386100124579814 1.3478764286245084 255 255 255
3.5372685342223806 9.707422126791437 -2.3227243654326464 117 66 18
-3.9467383287943547 9.23516969943555 1.174540703237127 128 157 187
-11.01766041211139 16.0885582779807 1.3394777053509561 157 115 61
1.4504732653464092 9.222020917723482 -4.797747381658336 108 91 79
-1.4819896467225264 11.122694451846966 -3.266850237871754 179 95 45
4.592028644120847 8.061474404271868 -3.6453438754383023 106 63 32
-3.0964467589619664 9.246765400884316 -5.399955136974433 32 17 9
-1.7652755962662234 1.656419842775615 -5.594973603228447 63 56 37
12.594790849700674 22.466250375754534 -2.2071227189092646 155 214 245
3.4145942189858554 9.12790596634324 -2.31222839382474 124 77 27
0.5488692337704065 7.850618091873897 -4.926513936476278 55 43 31
-6.327815707535389 9.525857651708096 -5.953822220054553 103 68 33
-3.3235062815726995 9.1770361004972 -4.964069758351036 18 9 8
2.840328086880816 10.79092334910609 -0.41101269006399704 80 55 31
1.6671088585807645 10.66769144571155 -3.0417395124933604 206 178 138
2.0091929078427135 10.329230048845737 -0.20636863668634534 90 65 35
11.7798504269901 23.596964728104606 0.9734164107304999 121 176 228
3.8641484006238853 8.7297186124318 -2.91727250175291 33 21 15
2.911861939758946 5.795680415150407 -5.1689976088699225 8 5 2
5.768736182818955 9.323615899213392 -2.6639583900370227 81 74 75
0.6073629783305482 9.89062808279739 -5.00329573007413 211 186 147
-3.3808455266533417 11.805106291767766 -3.106329474687169 104 71 33
2.248581447988467 6.339189403464479 -7.443004011327523 114 61 16
1.9425339244250102 10.600446218481991 -1.7985885892256732 173 144 105
-5.8657830006119145 10.66967288518166 -1.683842837339468 28 10 9
2.9032940135207133 9.422995143810766 -4.627308608923637 30 19 11
2.863060733181622 9.373176201920499 -2.918700755759966 151 89 57
1.904894171362799 8.024785154225142 -4.8555634763016 37 28 15
-4.78522063597768 10.415470406002914 -1.6319663420329276 69 44 21
1.2622401921815802 10.397165548102612 -1.1668799804823593 204 173 128
2.818943743743336 9.544537076368433 -3.2266336366457895 113 72 28
-5.882145889517069 9.634561012898892 -1.4573448681559016 27 46 30
-4.9811494767974915 12.042116170997726 -0.5934247537794872 34 27 21
-4.614798071967758 12.424181324845437 -3.3991946578080405 70 45 19
-4.7483116305124815 9.713778779522174 1.1013507386212054 143 193 241
1.494450260542897 8.931446933002668 -5.000025996079683 221 192 150
1.3523434661013605 10.498713517511836 2.1409800944004314 127 99 57
-10.457861416209955 10.368031937636626 -4.540911185543292 29 20 15
-4.699781201251027 10.195696283652783 -5.329984947611303 40 28 20
-0.08845775790754759 10.863681008566786 -0.8482459174294774 112 82 46
-4.290208900872977 8.066858691389262 -5.142657750275339 32 19 8
1.211475831012897 6.393585506176681 -6.317953662883313 29 11 2
-9.281703193249367 11.883449502757315 -5.142907869998546 27 18 13
0.2745743616994839 6.23125276596531 0.988982842225504 75 54 35
-5.0846316082882765 10.646842702858674 -0.7908217337177742 34 25 20
-2.4850914760845124 7.527892112770149 -5.137748848702642 23 14 9
-4.332217332460143 12.709413224149554 -4.097390453492861 141 115 62
0.24157266740858516 11.29379163230966 1.241826054447096 169 133 86
-2.8680030114244404 8.40433498601127 -5.143339113278668 71 52 35
2.2028349232096414 9.500850945847581 -4.158509703853475 17 13 8
-0.7481637472612759 8.662621276118296 -4.920445242987071 113 92 63
4.5108491107203985 8.312569448762163 -3.6346191619783257 140 116 91
3.733013588321314 9.876794493370808 1.54755648787191 121 89 50
1.5654955317493835 10.3118161135186 -1.8551192988568042 102 78 50
-1.3354404202912238 12.274086504924238 -2.323165421976465 87 57 29
5.976458009899644 9.250743610987136 -2.6056115355667018 64 77 103
5.628760485969229 9.62069251683252 -3.2845794803919013 96 76 55
4.2751829515887545 8.316592156066127 -3.847470020339051 184 154 119
-6.4272814796395386 8.834877290639481 -6.386529467571169 95 52 17
-5.636881606487591 10.714382152833009 -1.70997997303444 70 30 17
5.900587930042859 9.246319584755632 -2.8409098086770253 55 53 60
-1.0012435843897018 9.816442812137144 -4.61450122942555 129 105 79
-10.697163791023696 12.078785880101442 -2.7470069432528956 24 15 9
-0.5064402586277384 7.705349868307194 -5.034337680982922 44 30 20
-4.976257532011981 13.705111553763764 3.666277301712001 118 203 254
-4.196579505822012 8.916036032926515 -5.73643636943009 254 252 208
-0.2680289737390839 11.375933218354039 -2.184395961369349 128 95 62
6.011151567404777 6.979564476299302 -3.8744549579581298 26 18 13
1.2201183567873541 12.578859619394262 0.6855696905787345 186 156 107
3.0844176404640473 10.037143514172374 0.6819288616002506 92 65 38
-4.42411512913978 9.65264358176511 0.9632115570154969 105 138 168
-2.0981699760231565 10.310799084687998 -3.419023525848983 140 80 50
2.8974531526814014 9.675992623374425 -2.251282155235862 47 37 27
-1.506714890520691 9.565439983605865 -4.693997230796274 116 94 70
-1.3594067901145552 12.01093034292059 -4.553292500390207 41 18 10
3.9028941330611997 8.83284478876296 -3.6166841873062032 33 19 12
20.00863375340882 31.030750830956404 -1.9289338527131434 91 139 185
-0.5939735204141136 11.816588679307863 0.9001945526038305 154 122 78
-5.706186510096615 10.379770497760642 -5.7642468828176465 23 17 9
0.799743670439 11.886161410111296 -1.1555656199613749 167 131 83
0.45444938285099545 6.688778413590474 -4.676448425070633 141 118 81
-2.2496707528933153 10.322300578603041 -3.351948152786524 196 119 79
-3.0662136030915335 11.758177272749963 -3.5171705043857906 141 85 53
2.634207085327154 10.563701810054527 1.1900882393513759 64 44 23
1.284932588029066 9.991259073946825 -4.516169674307971 181 146 95
-3.5893223146168474 8.17365086448354 -5.560672185296309 178 157 112
2.7435582589124876 9.387255491700316 -4.502620856979717 56 28 7
2.1231615176042165 6.11648335480883 -4.907789061395117 39 36 31
-3.107081680370953 12.7176964281817 -1.9800016743266178 64 41 23
3.9041009205495794 8.95931024543177 -2.8960022036405397 135 105 73
4.600188929597109 10.815307771438794 0.7645778733835055 125 128 137
1.5749672902880878 11.189536741693589 0.9707627632873855 159 125 80
1.5004876191520544 11.339469212336212 -2.6915807515602164 154 125 82
2.3731032538925856 10.234673704335728 -0.8451763335231358 109 83 50
3.4801395202494967 9.41835297603353 -3.8010819097212143 3 2 4
2.7645269631064098 10.30876758683221 -2.3997051229668003 70 52 30
2.3677968679568857 9.440877319606752 -3.39051504556748 158 117 59
-3.4731839568754745 9.075103621241443 -4.733066527327122 43 30 21
-6.667363114248817 9.185760119975553 -5.6921096056504865 26 16 18
-0.3322518273161445 10.838040620939326 -0.7589697030756246 215 183 133
0.281060578435465 6.7158568186588035 -4.917782385650924 188 165 128
1.3293772608946568 10.3526015148448 -0.3296578877805204 219 187 134
6.239220864881131 9.039188898928469 -3.089357505631734 52 42 33
-4.825339817356176 11.995911137988244 -3.656366705604427 86 53 34
-13.14569525914679 13.895060297033803 5.521919514837036 198 134 47
-1.756630805830444 8.775307869578182 -4.823036436310888 88 68 49
1.8569597237133058 8.302964787508207 -4.753335582167226 25 17 12
-3.595211938621807 10.722045877244865 -4.7158487980858 26 18 14
5.324705135755982 9.522254447249686 -3.4369420986136165 107 81 53
3.9460520237150067 9.443642135794978 3.034067596397244 113 86 51
4.642119213807921 8.870136043929946 -3.1855286605708244 104 79 50
-3.8071888202113486 9.905669016328934 -5.334079248341246 51 37 28
12.176991575649144 22.847304249425484 1.6234964139820334 142 204 235
-2.1738584877912555 9.663261696482747 -4.443621322706192 21 11 8
-8.858831840671586 11.625589868772627 -1.1443475575936286 152 64 40
3.4072147891504407 9.750144829539531 2.550154271891745 134 101 56
-2.905275119594992 10.182005434694792 -4.747259839174102 50 37 30
-9.531994760355383 10.30798898353892 -4.162725090075641 87 57 27
-0.6011971336107189 7.506518538834042 -4.831081379598201 31 22 15
0.2449917211751021 11.514448122376834 -1.6826383245159284 141 113 72
-6.2128898220551 10.119299074251547 -5.64402816863139 16 8 5
-4.159124603119262 9.177421051102074 -5.32855141770051 101 73 51
-4.19522024324938 12.469300083783201 -3.6482533139515647 93 65 38
1.2627946054003591 9.674633437208765 -3.6674300199462126 68 49 31
1.4561855966202244 10.367183185965654 -1.747103379550443 99 76 45
-1.8566868912385748 10.283745431373033 1.3541748053685239 76 52 29
-2.027606993111606 8.694758272567118 -4.85383243680657 63 49 37
-2.716054080644544 8.663520056598454 -4.49895725010913 23 14 9
3.277440732588687 9.074590523557488 -3.2579009147102655 133 105 65
4.999567220442676 7.693789247509764 -4.63232834395491 2 1 1
3.7316219079924244 7.283159718201534 -5.091231921072019 32 26 29
-4.524713905439503 11.289878784969481 -4.335152769090763 44 36 30
