ply
format ascii 1.0
element vertex 712
property float x
property float y
property float z
property uchar red
property uchar green
property uchar blue
end_header
1.3735907300608203 1.4924002547593 225.4302411213291 95 84 71
0.6179991517719903 1.4201029619806917 226.39351795400498 235 216 183
0.604458018677103 3.304136553681499 225.26515906554246 192 183 165
0.9658180722118969 0.9493202199233509 226.10189703115628 92 90 81
-0.10959804730582684 2.0284732553441405 226.7358719904842 126 114 88
1.2751364535243683 2.1424131535306348 225.16680242209242 68 61 44
0.9310821699331302 1.9398151264061203 225.64479205904266 205 194 166
1.0229217278518883 1.7792980979990638 225.81099836898125 126 106 79
0.07639998322046923 3.276917427680616 225.83291225687833 93 77 61
1.6400277761690814 1.1274504784214225 225.63038075531003 219 199 174
0.19746611013876736 2.7712850366262116 226.03814842922102 166 150 124
-0.15576089052339628 1.329932033545421 227.15121788427794 128 106 83
0.6582614096277665 1.8817060727445902 225.91464677876112 250 235 186
-0.17587953440096676 1.6844033586796183 225.21145046601228 235 220 184
1.3350239774122834 1.9782422082545883 225.4259924871734 221 208 191
0.06221228321988561 3.233843825957721 225.8903288342666 175 165 137
0.9036877304111777 2.10849206446924 225.65537605219643 90 84 63
1.3047275978407558 1.8855614751579002 225.6414796481955 129 105 81
0.9885364148462896 1.7376858762127834 225.87081306502657 179 171 150
0.893941938249411 2.2056292560103814 225.6928578963561 126 109 91
0.9225391116194835 1.1044131589182986 226.30283237897362 233 210 173
0.7002818369595214 1.8119328471393226 226.1981626061419 65 45 22
1.0192285250395339 2.234870221359502 225.7113224192587 76 54 35
0.34436277658610726 1.8376515411661114 226.21952617587652 250 252 238
0.418587905557511 1.3794363381323338 226.56785614809183 55 46 37
0.29170488131579225 3.1557927966677406 225.66972158107896 44 34 22
0.2287409264516646 2.734458264500841 226.01789822929197 79 70 55
-0.2576328633961622 2.811550275863579 226.4493134304546 156 141 118
1.2860557603156169 1.600064594405988 225.6125724958084 101 89 73
0.8436082439960134 0.7506396034437645 226.37107687171854 192 180 156
0.582107063228151 3.199252251320299 225.4721257807171 180 142 85
1.0010398234755795 1.4770722104579002 225.9996927296567 34 20 8
-0.17508476870925158 1.578298784040223 225.36212690039267 132 120 105
0.1320198766757162 1.6453662375805733 226.65895090626645 164 142 101
0.05653858298105144 2.0308223914069865 226.53512031132436 48 38 27
0.6066462236657342 1.2306263126502817 226.5208784710995 64 50 22
-0.3646889695207366 1.6680106643244426 225.53273085512652 38 32 21
0.52035419800698 1.0695394332458459 226.53657961564505 96 87 75
-0.4308704056369526 2.9335110919984952 226.45321288601198 83 69 42
2.0732217576634984 1.5333282287748242 225.08297818605956 200 189 167
0.6526646798778611 1.0228249326249763 226.48457903599493 141 125 99
-0.3661612935676254 1.2040714178419214 227.337015104955 108 95 78
1.1693189149931027 1.4388006442247903 225.6464693179207 51 40 30
0.2215327723903066 1.133815347131585 226.7726963548509 132 120 98
0.40932920702200226 1.6968816395450577 226.43268573188573 183 171 148
-0.1044485052569996 3.609701054983701 225.80664949566562 93 72 51
1.3342157545566415 1.3694649339233755 225.53168296401634 101 85 67
1.261385352955279 1.9105264893321494 225.47221220140267 173 166 146
0.8621740435168921 1.0109979084250131 225.71043353879887 127 102 80
-0.9031226789154633 0.9441409258194544 228.02681656769485 119 108 87
1.1379601165063185 1.7784480731952692 225.40761065990827 56 51 39
1.2563766215376089 1.4667073564915185 225.7628912378324 99 86 69
0.66275694432552 2.695737445034799 225.42972350318692 133 124 106
0.8702114048601507 1.4260192404208238 226.13793285362132 74 57 29
0.7803839193574048 1.3915006772369192 226.11026654110373 213 206 182
-0.0347341280594516 2.6205117503583124 226.36060261127585 133 116 96
0.5657419367246364 2.6149127095318283 225.80238255473498 184 169 138
0.5862576898187005 3.248506917207315 225.34773987846623 95 78 58
-0.19538906469180423 1.5643236799084337 225.30167336481935 157 135 104
-0.6751480918196755 1.4433406917095777 224.76516178426738 106 70 64
1.0869998479688876 1.1822901424066745 226.10637159186192 40 27 14
0.39947321216145965 1.786074790373834 225.99314429354422 106 78 43
0.7626468870150643 2.264302444443231 225.8532833746873 84 68 34
0.9978631168378844 0.7711293859247838 226.21848122417407 85 70 50
0.27501625970749755 1.8215080875528673 226.14341561586588 189 182 166
1.3044376152330697 1.379221254019547 225.75156940401513 154 139 116
1.2628766511692675 1.688998093675835 225.73529284922122 66 46 19
0.11378009621699477 3.115273557833554 226.06778492581248 146 127 94
-0.2703946688219799 1.5269826986382677 225.29742262200392 236 231 203
0.9471193945446048 1.7228457728384263 225.70718469314184 95 88 74
-0.2583683668914071 0.7120994856339555 227.55178788943738 162 135 105
0.18669118264323895 1.7937967214126425 226.00436952133663 47 44 45
-0.3002594761578207 1.9991754413745781 226.90469601735984 98 83 64
-0.4228090586700292 3.7587965662725122 226.03154993244894 141 110 66
0.8938404902795337 1.4114010374711101 226.08979319881252 115 97 77
0.43972844192195343 1.7952593177646887 225.96794551458237 86 65 41
2.218084381668912 0.9035715367738251 225.2454684027933 125 109 84
0.4024413573146007 0.7223890079306784 227.02755588962376 180 163 133
1.3306160979296298 0.9205965286337975 225.95769410308282 76 58 34
0.9547130818194343 2.463450563327317 225.51224122346247 175 162 134
0.30374094397320117 2.731989963008429 225.95380953491 171 159 136
1.2205243404375943 0.7875265261163495 226.1560949198138 68 53 33
1.0353074412839536 2.335206007524393 225.48527698242373 49 37 23
1.2840803341653189 2.9388600159476 224.90005001465346 76 67 52
1.2898773364991936 1.8432809323127546 225.31279040984376 221 208 176
0.7423499127923435 1.4241963503905444 226.0860618463668 205 196 178
-0.5073192790850252 1.6586884101983579 227.21862552509398 98 78 54
1.6308504518892089 1.9732039089127111 224.8693750513367 107 89 65
0.7383989461614602 1.652806162646539 226.23634907692488 127 103 79
0.2913525985590632 1.7888203825394036 225.92993032869538 80 62 48
0.23560239264137672 1.034195413925589 226.83450587107453 87 72 49
0.9165133183774662 -0.19087811299474272 226.76568795241147 114 101 82
0.8604870844429201 1.2960009009999427 226.16418906619418 84 67 49
2.0927433712268133 -1.001160227057301 226.27520042654393 115 104 86
1.0976173701721608 1.8262248144986137 225.7723771222134 77 61 45
1.1346305528297524 1.3376785606169699 225.73029075293206 212 197 168
-0.10861618078727364 2.787762519711612 226.32157464815455 168 154 128
0.2560244767164999 2.6403706035192354 226.05389111325132 125 106 76
0.0003550514345714614 2.144012900690641 226.5419161534973 132 121 99
0.21027252430359802 3.203352112809023 225.900511530592 62 47 28
1.1089957876057954 2.273332325907706 225.57106881178794 160 134 107
-0.1845529184105852 1.5839633075713393 225.25931624419505 244 238 216
1.0097002793564578 1.982788932541038 225.7998738617867 221 180 116
0.5481841391890074 2.7847460540529623 225.8303514999374 82 64 47
1.05268956476156 1.5172304477659428 225.94869213362801 208 191 165
1.1674412330526411 1.8127964979590712 225.3758334661708 103 98 89
0.4032057319042713 1.7918018300069727 226.06627339497294 95 75 43
-0.24470190202634926 1.9291861093962506 225.34564309083024 61 49 27
0.4060220362191401 2.739454668437411 225.86365635094162 50 40 30
0.9951022310243756 1.8845824761521337 225.79154927055242 132 113 79
-0.13062969664652735 2.5482726848869715 226.4583347026041 26 17 8
0.7244841269031624 1.8521219603865013 225.96326421975385 188 180 162
0.9579787975470587 2.4195967905759574 225.53185253131443 67 46 27
0.30783532701068156 3.4917383482173094 225.46195621039337 93 85 74
0.539414625891638 3.0123421745824137 225.49380439931727 213 198 176
0.8266685211884743 2.56419430285344 225.5987572258078 99 81 59
0.6178413242975731 1.8532202351558533 226.14451598899035 55 34 29
1.1417788120987087 1.2335907255895453 225.80654454960774 202 192 167
0.716774711802869 1.5658453838975082 226.27169082480796 178 163 140
0.334436988927917 1.8022190849235462 226.2074618044659 61 40 29
0.40423791676897786 1.786493499889337 225.84368431972308 161 128 87
0.7371566635465777 2.5142910074463263 225.6937464058782 180 166 136
-0.15527733921355336 1.580482732282834 225.43139907515388 22 19 14
1.110681791273658 1.568455307781248 225.85735815845183 71 58 41
0.21093854536882736 2.716573794046679 226.0189467031757 99 82 62
1.107927533022437 2.4274240029458074 225.4184192164224 97 81 65
-0.4484966817436796 1.0464346609569037 227.52952891301916 100 90 72
0.7381429100245059 3.3409506238057207 225.08934681182396 206 198 182
1.336887459265354 1.7486527393511981 225.30232977023385 74 59 38
0.5522071819312784 1.168378179050246 226.5604791735755 79 64 35
-0.3146054892557846 0.7626922519653337 227.63831292874005 104 88 55
0.39176321127663694 1.3713280183383778 226.64531540342745 220 209 184
-0.18411674684106158 1.6524377285100036 225.22468848720032 226 211 182
-0.33100291916308816 3.0724447366093384 226.34514552190464 188 174 149
0.9303355882362305 0.9957801246146606 225.68638943809674 46 30 14
1.1430971199781859 2.3983601295260657 225.5125235228926 100 78 56
0.2781050328849766 0.6924856997230784 226.99272191656826 82 74 60
0.7098577584476494 1.4934032692062915 226.2789405942154 86 69 43
1.2732474907916662 1.9434989169836534 225.5583823775774 230 205 164
0.8883245417970336 1.6860504869154362 225.9931407709072 76 59 40
0.4504982744359017 3.082018073962192 225.64486789086502 122 90 52
1.0046804694378557 1.5848986490120112 225.95000519435703 151 133 95
0.6469823993394799 0.7576448677735286 226.79850947275497 124 101 77
-0.6503296886478173 1.0642660864719968 227.77423206819165 163 140 109
0.6900911880097752 2.552081745557109 225.75229333638268 147 110 66
-0.32827083147694736 1.5879197160218939 227.17955621991956 124 108 79
0.03574566214628887 2.7979512337623014 226.20482325760108 121 107 83
0.1671032052841608 2.0036955958628355 226.50554376496993 76 62 45
0.782021083223408 0.8926810025958479 226.349574888777 89 77 55
0.22213345696653444 1.649437088819284 226.6105949499174 170 155 134
0.7885716549641656 1.0836909555253862 226.39000057388972 180 160 135
0.8297660679661037 1.080827949801759 226.29720991800625 35 21 8
1.049599970870793 1.4293666826972569 226.035735945571 165 147 106
0.6875787848983307 1.339465631880004 226.23357296798318 65 59 43
0.484717540204653 3.3484584121832235 225.4085120851978 67 52 33
0.2296297848295515 2.792357032310406 225.99802463183474 87 75 59
-0.32122792955293417 1.8724290958097496 227.03645783797342 71 57 44
0.3683488473851007 3.367479407166935 225.55909512122255 74 58 42
-0.29731883267154524 2.9377417570989888 226.43152127761897 165 149 123
1.0592500390119268 1.9238913754849323 225.68296142594306 180 164 149
0.1261218510487268 1.4811792623875626 226.8213510225774 49 39 29
1.2007355464623477 2.0389075050403505 225.51816103131753 202 190 167
0.6534839862001067 1.399565752901904 226.3584600351157 65 48 27
1.3065204888635338 2.004567114742877 225.42087118578738 95 82 63
-0.025469576382901593 1.8841344038900516 226.71364291215284 168 161 138
0.5682572837404076 2.454486782706561 225.8915197934595 66 57 42
0.05840426511230613 1.7978729502868693 226.71509342095356 179 166 149
0.6477121431987197 2.651665009312989 225.71753716649866 177 165 139
0.779062250864699 1.6376941842122006 226.17665703562886 253 216 158
0.2577479035381646 2.5855733571281383 226.08591001705076 29 19 10
0.0707554082531968 2.098186816771881 226.50039226753478 51 41 31
0.0477758848345943 1.738444710672276 226.73555638557247 93 79 53
0.4643750133666715 1.7643237495179256 226.1697566886989 19 4 3
1.6523466349345737 1.645043748124177 225.30565583178668 93 80 60
1.7228247890670694 0.8828313289271494 225.68125410092173 71 63 50
0.6795575377403331 2.6740524216699213 225.70159129694443 46 34 20
0.9034841323405964 2.562981379674099 225.47558076735348 32 23 8
0.4471714533813978 2.4981408685622566 225.9419774945075 47 42 26
0.7575740321422235 1.7088105602877053 226.1361929385104 65 47 27
0.6524140729733906 1.5389832174276319 226.29478139647443 192 178 152
0.8999317904553648 2.128448464284125 225.8750773541508 47 28 12
-0.31206493991013956 1.5625702654283926 225.4744047191395 254 255 239
0.44171318547898597 1.799393611583501 226.1098875226439 62 42 35
1.2643645331542286 2.034486340789978 225.45716034097768 104 92 66
0.33301590320072705 2.687354669843058 226.00643278438727 177 168 145
0.8368545927210757 1.6624041652411847 226.07324297735744 145 124 97
-0.19852272284706296 2.683041297764602 226.4335745945934 27 20 12
0.8078357302358311 1.6550410021280093 226.03637525852469 121 101 77
0.8277744230337389 1.0476638329176635 226.30408151196343 139 121 97
0.7784006849848986 1.4670782373003013 226.140505686852 129 113 91
-0.9712652829194831 3.755580075737522 226.59855136054549 119 115 104
1.6340085824312507 2.3061389215346884 224.60829428895946 108 93 74
-0.13129113277555565 1.1279427325195766 227.2322600887246 170 148 103
0.3825455259500702 1.8459007660051814 225.86001070454117 79 64 50
1.5293983505520936 2.0577728955536467 225.17585863506253 105 91 72
1.1639553729605077 1.421740221838879 225.87429733629983 170 156 129
0.3713400651845379 0.7057244967993292 227.00047988810167 130 111 69
-0.3165941818395206 1.4785850698322984 225.05235837697148 158 172 176
0.8544094352440873 1.3818062245053138 226.1032847295228 73 58 39
-0.08178230428956369 1.9214009081980727 226.71124437385822 112 93 78
1.3077362887673398 1.2968220597423175 225.83798754646654 149 123 96
0.701111482473696 1.3927768690727573 226.32091776207113 77 62 33
1.3873927435454958 0.9263609539080441 225.74771445686773 122 118 106
-0.0136110217106992 1.9439716187780358 226.62812455841183 176 165 145
1.055896689369869 2.240428525149824 225.57257724939456 205 194 169
-0.22164993478252906 1.7995667371401505 225.1497132403249 124 108 89
1.123287176322154 2.2691547880072 225.59817587892678 139 114 87
0.9151156891002932 2.4581247664814247 225.5850895348031 196 182 160
1.3983580259798034 1.8992021838592277 225.44635822465395 132 108 80
0.5693725650434921 2.5611933258824022 225.66866776831367 217 205 185
1.002367040697196 0.6714888184836644 226.74987652067097 162 145 117
0.4400656472064201 3.167467881929911 225.6267859910886 221 180 119
0.7177304962272424 2.1338838350544522 225.9216414208328 98 81 55
-0.7448640092100959 1.631240344205389 225.14618547894187 64 67 76
1.0469062550907575 1.7199045285300734 225.60034679386936 72 64 49
0.6967129125993914 3.151717501693314 225.50665164132633 152 126 101
1.281027316634729 2.1848540177710367 225.52616025124527 135 111 87
-0.2578848517759876 1.855162744262964 225.20172322730122 173 153 127
-0.4611901127359011 2.0249634922829918 227.10010728011667 113 91 66
0.3659550101044761 1.8105259242127378 225.84300342066484 187 99 63
-0.34072770638342914 2.1184289103499037 226.8253725223288 101 81 57
0.41988522808391565 2.682763336576622 225.9065913066716 203 162 103
0.6447006629014388 2.633395239083209 225.74116890667167 88 72 45
1.2734509095858286 2.570461136551973 224.96379848536714 124 110 96
1.6106329837105413 2.0925910355785593 224.79907182879106 85 71 58
0.8202662948431645 2.8123437881028224 225.43610488793183 171 163 136
0.9291287233501369 1.8253203260363027 225.9030921193051 111 95 72
1.1954431408606139 1.3665165962403438 225.92546882748837 209 196 180
0.09363679915799877 2.488882473223758 226.27609546976848 5 1 0
1.1720098373345607 2.1591735903777494 225.43906384330202 193 177 151
-0.45042393715561163 1.6993078087829854 225.42406337085717 125 121 110
1.0143016863200054 2.6651873142942724 225.4261395437456 143 109 64
1.2335437851642754 1.0726884710096514 226.0824295595142 146 110 62
-0.19313858538086887 1.2646266941709985 225.29055109258422 147 134 115
-0.3659426007987399 0.8167959208161215 227.53086060083788 128 113 91
0.38759876604992216 1.7763978786118724 225.83142962382817 104 64 28
-0.6692324356941846 2.344782496184294 227.03679910852972 101 88 69
0.643512428539824 2.422069086788126 225.88401078130312 128 108 81
0.9689956660673181 0.621065916639871 226.31491420909674 228 217 197
0.23000432331213985 1.8947897709534118 226.50114483220787 89 77 62
-0.07168392441268966 2.1212880864531853 226.64470508197104 192 175 145
-0.15547378736235765 1.6836978823257638 225.20869487588334 232 212 185
0.49112403814454775 1.3109529356314709 226.58642789294709 170 159 138
0.836491521042659 1.3757913163909679 226.24056056357927 89 73 35
1.3398849760000648 2.1328364736334415 225.108276148641 206 195 168
0.48916329241437795 2.885667853405304 225.711135095216 49 41 24
0.5337842981880339 1.1082407049785286 226.5400046771183 162 145 119
0.7983738571361078 1.05640053600329 226.43075241514964 203 195 170
1.1137068000661727 1.3402113574939507 226.01491729628725 111 90 67
1.4569681785789874 1.0205271534085922 225.77620946144134 86 67 41
-0.6567911766058485 1.669206469030689 227.3872737636948 164 149 126
0.5030656103402217 2.4593157973722635 225.91640303990113 82 66 39
-0.2962801402174323 2.794646770026603 226.47403122562469 99 87 71
1.133935060837997 1.7580205759527952 225.76515275108278 135 112 86
1.002261647938393 2.458411810300329 225.4291662460063 148 130 107
0.16265224542127216 1.8745598951370845 226.24572331143125 177 174 159
0.08141359694832631 1.8492656273102244 226.63676406776878 187 176 154
-0.27884867040304817 1.5397508884117201 224.9755799713266 254 250 250
1.421509163462091 1.7788196023574274 225.43625181600893 78 61 45
0.44215548132903454 1.7557509337620743 226.1739193006139 163 125 106
0.6704663498136542 2.5486554956551806 225.71304810287043 113 92 71
1.3321760893811347 2.0227338047376695 225.1932128664768 70 60 46
-0.20978807430945498 1.5514021183106306 225.37550739340674 247 231 198
-0.23540234960080456 2.897277118455729 226.36986544225093 112 96 78
0.11984662019434372 3.714134513604276 225.56970270126646 132 108 84
-0.034430549767008545 1.9200958856963561 226.7274438612117 171 163 144
1.5633633590510083 1.7103519022278417 225.3548041425263 206 191 158
0.23239380206855959 0.936265353679258 226.90026762273203 100 84 59
0.8618305766542679 0.30207727756099056 226.91585778274882 115 100 79
-0.18159065038154532 2.9424868207856445 226.31839438689983 57 46 31
-0.2534689023011077 1.0471892874815392 227.2406154601415 178 163 134
0.617799802905165 1.3723840002932306 226.43832525118694 255 248 222
1.3354578478880472 1.229323008601044 225.89314917716888 68 50 30
0.35043462170298467 2.8738513650810917 225.88752177136473 95 78 60
0.8454813467111514 2.468240192184405 225.51419964498237 39 25 12
0.7336381902165331 1.6647248354050201 226.1451248837216 117 100 80
0.3282934191541851 1.8124917106394982 226.43610830615205 212 192 159
0.7440290218677674 2.511272005682722 225.59140461222137 94 77 57
-0.3550340908418131 0.44631634053032504 227.6267972941925 114 101 82
0.06476642232871521 1.8274420731387977 225.99388563291296 222 141 106
0.6048627387053761 1.8870663753572468 225.92426116791995 64 20 3
0.8211200998607332 1.1500633995104041 226.1714111834242 199 188 168
0.7027612184805851 2.9725880885409723 225.4491518719906 78 62 47
0.7705963145369387 2.288927841253626 225.79249962587494 88 69 37
2.630880036405802 -8.913154479944275 225.568751522102 96 88 85
0.12974629864457013 2.7797851285086312 226.07736364682222 96 81 62
0.574988422406687 1.8203400186006033 226.22513098484393 36 14 4
0.3586028191354258 3.100331321057255 225.74511298018288 195 176 144
0.8266295188946761 0.9852556198130052 226.42809470875437 242 219 187
-0.037590834659410224 2.9136016178166795 226.1734319743387 186 146 94
0.7247628925419962 1.2596941161476447 226.3136765629368 77 60 40
0.1212138170277191 1.727819403968586 226.65683383541196 72 62 51
0.9157463025056545 1.2168596406285932 226.24395554158076 211 170 111
1.2440076082097113 2.2145880436565 225.34465765056035 204 196 172
1.8961641063966028 1.9905525418094396 224.80279293419153 108 100 81
1.0453775725511594 2.0287545729211267 225.75056914215844 93 78 58
0.2435876548065667 2.7551683160299296 226.00587776449248 207 193 166
0.9449213052062246 2.793012493833031 225.31047255950472 193 181 158
0.4937497889280295 1.7544158428887668 226.11840719432243 217 171 156
1.1383703246485233 1.5982296995045209 225.79012454788875 117 99 77
0.8941523122923952 2.1918397475133364 225.81412731022874 91 69 46
0.3948840295241939 1.7997844939953522 226.10788559742332 234 229 210
0.49573129183147857 1.015351452978998 226.65915129159413 151 132 90
-5.829864540157083 14.901926610166813 220.38541679383937 165 162 153
0.9323488768790323 1.632035492262621 225.965076746492 72 57 39
1.0112949134261071 1.7408641121886697 225.8443433003178 122 104 84
0.3943621740671872 1.8513093029736465 226.37354005468592 42 33 24
0.7861242522743876 1.8256820302180632 226.07988699278005 55 36 19
1.2782226087334978 2.1663073863779228 225.3909561569583 197 185 161
1.0300533176171365 1.7128005512535933 225.84286127865244 187 169 146
1.3365449255589463 0.8448696086549784 225.85595062874683 124 112 88
0.15792745845257253 1.4909233787788387 226.780327587057 133 111 88
0.6602011488028873 1.542009383334132 226.18993658450597 81 65 45
0.36602274501541243 3.2236238945312694 225.66121419430152 196 155 99
-0.10686299449121589 3.1587778587361646 226.08894475634415 64 52 39
0.7497078787339299 1.7211393368469574 226.11766242609383 37 25 11
1.0239246723024837 2.2497562959152733 225.5782878044355 83 69 51
0.29068430154147473 2.5922170988927857 226.1140998434449 110 94 68
-0.1664446718552462 1.5710336845395207 225.3734416269722 88 76 60
0.5348755241795877 0.9693042354575252 226.71630224039384 94 68 39
-0.9991707881117129 1.6649462667414552 227.66925260125313 126 112 89
1.038762714207028 2.323326008357588 225.5292123675746 14 3 0
0.40950107499629534 2.653355465508822 225.86602688419444 93 87 69
0.9209464316211098 1.5267528216774207 226.0644726792049 240 216 175
0.6935941734173376 1.7724575728803225 226.08815430160456 63 48 29
0.11549357450535581 1.724664109484881 225.79365438025056 60 42 41
-1.0554225997460696 3.5233971286796404 227.01520688918754 75 60 45
0.946864501851302 2.581979941881597 225.5372289999077 96 76 52
0.5453360707257553 1.4133582331048182 226.44073752922716 125 101 75
0.44565847868569025 1.4616540860081617 226.5563934457007 183 176 158
1.1503930576737331 2.085386869819657 225.50995143464925 186 176 151
0.30206176013653624 2.917990663246012 225.83973375687296 79 63 37
-0.13422548496702258 1.6798902367856714 225.24182801600423 142 121 92
1.1578840227118328 1.6823961196506314 225.50305279300352 201 189 165
0.3192072912866541 2.5925169948668447 226.02719411398348 82 67 44
-0.018182024533069958 2.8472347815323733 226.18291749353247 157 144 127
-0.23637593216645678 1.5219769901730782 225.36104026076717 118 107 86
0.4511274808762727 1.1832357306880672 226.6853703183515 107 83 59
-0.4404656903706244 2.0481743351382367 226.99835213892862 168 152 126
0.24942627169302448 1.8949960415002307 226.4676911722706 59 51 36
-0.1577965086925472 1.5355059811179288 225.35177184903168 208 197 169
-0.08169756649916886 2.1425100475221868 226.63471435781173 202 189 168
-0.1730929649328325 1.7663043019905869 225.23319030450736 253 251 227
0.619882395809377 1.0980551509179055 226.52275889591766 99 83 70
0.241166700206414 1.430364224159756 226.69876199928618 205 187 155
0.5018045038341893 1.3161885067796042 226.47600676342918 74 60 41
-0.3249935470640997 1.756483153178546 225.10471697686975 77 44 35
0.2290482039510387 2.560776170937022 226.11811292679903 66 57 43
1.0620538402173547 1.913401118969696 225.7048333322592 204 182 162
0.8556819007227291 1.7657938307480703 225.93483733659625 117 100 80
-0.6102049735736642 1.6183025630302947 227.4301444306213 157 140 112
0.409877308750709 1.7771211384746606 225.8094365634026 127 83 41
0.3859406155889291 1.5357815277392308 226.52917482155436 170 157 137
0.8937846957309656 1.056305108823674 226.2436631338843 123 106 82
0.7363140782411247 1.3363510069988231 226.3535074725012 114 95 60
1.133651521852352 0.45694919092224034 226.27168441760585 203 197 186
0.7841473859422821 2.456737552126225 225.67081900584589 88 77 58
0.3655872177555824 1.8109811283316335 226.39731219555833 62 54 40
0.8900195749593027 1.4743929303298655 226.1271184059597 63 47 33
1.795889086446318 1.3667856369027611 225.33034770665563 185 168 140
0.5544489493369995 0.8937367666874576 226.61597822219963 97 91 67
1.3469917582706048 1.2142364195457327 225.8282712795692 44 29 3
0.4626487208111792 3.213836561267624 225.44587718511514 94 87 78
0.1768063768133254 1.786840798327449 225.6068329313074 123 125 124
1.0099766791361198 2.3978240316897073 225.4147128693869 49 35 22
-0.18802582899761483 1.5594326751053365 225.371052206069 141 134 122
0.2888765172190413 1.4233235901870958 226.69901090871278 83 73 61
0.9043381828287946 2.299528176396262 225.67305176941173 120 102 83
0.8971899051329698 1.6988216616093164 225.99837064458305 78 61 45
0.2507621100145728 2.788415120976005 225.9872534938078 186 177 148
0.7648093601127802 1.776767174794346 226.07096168436405 176 164 148
0.5100618656039437 3.189305589433528 225.5192943968721 93 80 63
0.6553716242095682 3.0079411368313047 225.59302765965572 156 130 103
0.03283010556691203 1.815886650629439 226.73010817208117 87 75 59
1.2414554758728176 2.0936034843584928 225.43555427318955 84 71 54
0.8829960089217774 2.8296075810226835 225.41260921084918 89 74 54
0.9613024602861245 1.2009590084507713 226.135152667444 60 48 34
0.6760093352602704 2.3142451315667887 225.84881849649454 141 126 101
0.9639093475699745 2.5757321015581227 225.578078964848 151 127 99
-0.8514044418309737 4.171768885231496 226.31164760537797 127 118 102
0.7017130594769575 0.21112949144279286 226.94341400495188 151 131 94
0.19403507742327722 2.776389278699525 226.03881915802612 131 117 95
0.10070436058338564 2.8899331642298525 226.1337630180227 62 49 32
0.7853060772777026 2.4423065064631833 225.6998603613787 74 58 32
0.10573704365328883 2.6694267966644736 226.15725484938173 119 107 90
0.6798879622798082 0.9699662041322781 226.57955673753526 127 102 80
-0.13265470623157288 1.6657156425894246 225.24836301506514 211 187 159
0.8427592544846771 2.2030797343788877 225.6587586746766 55 43 31
0.8097734638946743 2.4090387373104867 225.67992384584733 54 42 26
1.3736597967664799 1.1935789436153865 225.8139554964385 40 28 9
0.27130654913178465 1.161808467209509 226.8194636349202 169 147 108
1.1293068039976468 1.255934384814011 226.02702956867844 221 197 161
-0.018935623935340026 1.6709574670775587 225.7465267468799 141 69 46
-1.4598550372776917 2.9006888234401003 227.2989024715295 147 116 69
0.15729561783373622 1.901519598332966 226.58464930688302 194 160 112
0.82961241965601 3.0447159601996647 225.27855676659624 187 173 144
0.8163456576288936 1.7515994396682155 226.07182830919473 133 114 73
0.23412816483197418 1.7615484917520627 225.95810673566447 65 62 54
0.4758032064925533 1.4008505281741213 226.50006011839 160 141 99
-0.3530682859389725 1.3609149394120073 227.2197375498262 74 62 45
1.0387920864288098 1.2562592065068356 226.09603381039784 142 121 92
0.2535054833395349 1.0325412958699085 226.95254724431666 113 97 73
0.4176406617545263 1.618899250706495 226.28660472329466 190 197 194
1.0875257242170973 2.314958335540881 225.47520800210037 121 106 84
-0.605691765183374 3.91588969092106 226.09479456325195 112 88 46
0.8253177341591659 1.7684225898036705 226.1110501400798 133 109 85
1.1313823104847436 2.0978913377546236 225.67063829982027 50 32 12
1.2701459143412843 1.6754292397147463 225.5984230140613 81 72 55
0.6276234601986155 2.457466621964469 225.9046895097533 109 98 72
0.4978956131808887 1.2174647004471006 226.5990939527014 88 72 38
1.17161870362186 1.501373979909375 225.6151616270666 60 53 35
0.7488986559994594 1.6677854463680275 226.12259951772901 100 84 61
0.8231661914284039 1.0801859587690414 226.39570143014808 89 71 41
0.23631919072631025 1.9408842925567324 226.46341864727944 67 55 45
0.7725155890805185 1.8358507321308228 225.88954260088667 120 109 89
1.3004504776021477 1.342195074549743 225.5361585335301 218 208 183
-0.06379875300767031 3.004482562713782 226.1567615934345 108 95 78
-13.386765868482918 9.82306169857917 227.53870343094104 246 247 241
-0.3259059781448515 2.9768496074427024 226.37615028184752 56 47 32
0.8489992067154406 1.7669840383657427 226.0456266910543 47 30 14
0.38302820172347757 1.6182005914940099 226.50435811872757 147 136 112
0.48394280260271066 2.9370409618748288 225.7151198547922 121 104 74
0.5747594696109166 2.6266464016358175 225.79179015326434 196 179 148
0.6445690387540237 1.8185126334517756 226.14078195687665 133 115 79
1.0335893002160723 2.5744503722720298 225.32087616926538 47 33 20
0.1045762243553825 2.943100327821714 226.06888049187793 186 173 147
0.5091827302257113 1.2646692141262985 226.58188517049294 55 40 19
0.7837600457186298 2.5334146848364876 225.66889699225686 139 121 85
0.4521046090427382 2.591102106920596 225.89575103007556 77 69 56
0.7456982304090811 1.9417234445104576 226.031391639767 42 28 3
0.22817525297987534 1.8453117641473624 226.52917118148002 87 75 66
0.9474441626576212 2.10637424755399 225.69340721296945 59 45 35
0.20704883369395016 3.02338547975536 225.7302752336733 93 87 75
1.2132861401505801 1.8577283211237152 225.64077645287196 138 126 104
0.7049836204315151 2.944967844529056 225.43650233211656 92 83 64
-0.6262209210891716 1.7442106358864056 224.72757617890272 210 196 196
0.4825810821305499 1.1839718068511418 226.6017002094142 111 91 66
1.1279730328243152 1.8606972001214535 225.68339865810557 101 88 69
0.4341504202756861 3.104043324240438 225.66517097218735 146 134 110
1.23389006084015 0.6668124217116842 226.02332390040297 197 185 163
-0.26779633317788576 1.1448700369352909 227.384003233013 156 136 94
1.9917230653978986 0.78105232124878 225.62067139233164 177 170 151
0.9770466404625295 2.2667782984709053 225.66709810172733 130 107 84
-0.11048669774851858 1.772375589018048 225.29382404179304 124 135 126
0.5639788879210551 1.6880676926351044 226.31930517016303 126 104 80
0.9846422891809046 1.8089610268371048 225.908612463103 101 78 58
-0.40257935411920626 1.6273405960071192 225.030965818182 12 11 12
0.6260782737704167 2.739566977891824 225.77669082751532 73 51 37
1.1870807744547935 1.622894824339693 225.78783725375686 224 199 158
0.4345572281662443 1.766389386726485 225.8448416523427 103 69 41
0.2289807974618312 2.8567499921163986 225.9711295115874 37 26 17
0.7040258406418233 2.9040793755784162 225.5149154358846 112 90 69
-0.04041483584974558 3.0801458850606966 226.13399836787755 85 72 53
0.6489336407536989 2.5573026423564134 225.77542590461644 127 108 78
0.464447882745854 1.8268473372000744 226.0726834755795 58 49 52
0.47107827923351525 1.8176458852133988 225.80113613767307 227 205 137
-0.07045039839625877 1.4396479746257014 227.05399695978912 45 38 28
-1.3125072832761204 3.852303875704093 226.67385726399556 144 115 75
0.1462002813888618 1.9149363844022513 226.45322707031295 173 160 132
1.0214297918458886 1.042723085001859 226.12552060205735 123 107 84
-0.1883694210984167 1.6395302577095634 225.68347605776142 167 105 83
-0.02760119397590317 2.901167784686082 226.19873878577124 151 131 94
1.2298563804353646 2.4027928474698723 225.23846564536962 85 81 64
0.05067743591421324 1.9014778372151582 226.64984836784447 136 125 104
1.3753737353565014 1.9351108839238473 225.37842810159145 162 142 107
1.1571098158892184 2.3208281447523373 225.15144972438054 83 76 66
1.1503211801066708 1.8809798895254617 225.36344793693505 208 194 168
-0.7331535656816284 1.829445641326892 225.3838752467077 80 48 35
0.23909670780875011 1.2821776975785935 226.8038695745707 108 88 64
-0.12862739856594502 1.936470045100456 226.804017669652 195 183 160
0.6611825085828089 1.5557730089788946 226.2445265376917 113 97 74
-0.16411744282213092 2.8716205331000317 226.30863155883102 181 170 148
1.2263933849604467 2.0692527133417236 225.5241045826881 148 127 96
0.4361171183260909 0.0016864665498920626 227.26751122753817 92 73 43
-0.15721516968489013 1.6850897329463745 225.2090335020183 237 219 175
-0.15526217453577731 1.6276510912889757 225.3071769974787 150 129 102
0.5270807920977609 2.1584756125788687 225.91154708722237 46 29 21
-0.06994027346148755 2.0492025395191638 226.65870530570086 153 144 120
-0.22312934627591924 1.5317326900557964 224.58117036824 89 76 57
0.802672178114054 0.7697039507449257 226.391911171178 211 196 173
0.6660725556690601 2.7662103988612263 225.7457246994506 135 111 85
0.05220586336171004 1.6590759927333927 225.71742626158033 58 30 21
1.1167968725501645 2.843640620526098 225.13043800230798 120 105 86
0.4450472376289167 1.80936446714636 225.99030827500476 206 186 152
0.28839494318827147 1.7727440574243378 225.92751085680877 97 76 54
-0.2032810649231938 2.7912600743876346 226.33156451243323 166 154 132
1.096641256339759 1.550290846177885 225.9980160881904 34 24 14
0.1508029488777106 1.7619947687020543 226.62602217583688 76 64 48
0.0870283715489267 1.8256641726795284 226.67594136857537 110 93 72
-0.2592826636029843 1.8935513352800635 225.24032582199132 175 170 155
1.1114193288985128 2.8326694185192736 225.18087988073572 170 150 125
0.2354405068002084 0.9447806067743061 227.04904570896787 93 71 47
0.5897158446546228 0.5883247552080743 226.72679720584128 213 200 177
-0.16135026821767834 1.6461171323895791 225.25287121750878 54 41 24
1.0816723773542138 2.1753477073532252 225.62469639742233 98 68 29
0.7680796946227932 2.186755455864917 225.67669066494105 230 217 191
1.272423977896573 2.034452472703051 225.4109866206185 209 201 176
1.0271807686575798 1.135440685295385 225.97307471648085 203 192 173
0.46035414294163174 3.031330605593886 225.6799139937248 92 76 61
0.9662062130177589 1.2174852609934652 226.1908358906168 194 173 132
0.38231049361659486 1.7807355946645127 226.04386914975174 129 85 52
0.46586359363104607 1.7265093797760822 226.38173447106007 148 137 118
0.7103379252649102 1.1762778254285402 226.33737658147007 134 120 94
0.9414366431200131 1.5335620447882892 225.9804664890525 65 49 28
0.3019621008926922 3.104938717543989 225.73972395165924 192 178 151
0.80322713089492 1.1536238475343508 226.4369465352666 120 98 74
1.0669375001513721 0.8535383571234141 226.087062899841 214 205 189
0.6019266283449758 1.299931533203325 226.50450587317988 80 59 40
-0.39230958970517044 2.7722031248746855 226.4890330722448 110 87 53
0.542780217271314 1.8367897179518535 225.96479572782204 163 134 105
0.4649660495946952 2.687228979061946 225.89866008370626 228 205 175
-1.4273474926661411 2.2736613265797803 227.94462153353746 126 110 85
-0.32996324440176783 2.16984438279455 226.84838707001254 153 141 117
0.27478772983016553 1.4635075752691966 226.57943592188408 78 77 64
-0.29022064993188945 2.7113686995643507 226.49814749930232 59 50 30
1.1820341247884913 1.6678015917733822 225.82276004858866 88 65 47
0.686576623897273 1.1018940272904139 226.41472363950044 59 44 23
0.25757369562667753 1.5356509813768684 226.6634422975458 101 89 77
0.15862886037563004 1.706080073295345 225.71211167207213 185 108 90
1.028522954324607 0.751151059146177 226.21553415642353 109 102 85
0.15813013616474123 2.596595280594538 226.1532462605197 181 166 135
0.8719915725101973 1.8633314913632197 225.9395377386147 49 32 15
0.9330131463195841 2.1043097632813437 225.72894835158365 153 137 112
0.7929782018021136 2.797834371199287 225.48603142013764 71 50 31
1.2607555886176605 2.377108679471097 225.2006429630726 75 63 46
1.2514096048436596 2.002376205373751 225.45367608825433 182 165 139
0.8074421586758342 2.937384854158056 225.43805493775744 181 144 89
0.20816595045330377 2.9223315491492703 225.91418988617193 88 78 58
0.14837465092286573 1.5575317554142327 226.77008391283212 59 47 35
-0.2820310151180509 1.5893848626427085 227.03392882598732 194 180 154
-0.3208506523890543 3.8754246530448606 225.92875385219304 123 112 87
0.10734399940297291 1.2909721846096145 226.83619666419756 80 74 60
-0.14071749940571102 1.6980865782727068 225.24142645781592 222 200 152
-0.1434489676385386 1.8189621832985947 225.19094848988755 229 218 196
0.8326824803986216 0.9290202830450212 226.36795593597552 127 111 85
0.9272378604222938 1.0177483073365214 226.24050753572917 75 60 41
0.6848811676004342 2.583285409887871 225.72388801201038 210 169 108
0.9776440876484197 1.4587147071895221 225.80791734993537 171 160 143
0.3684625177796641 3.1758032486048346 225.70766119697382 46 38 24
-0.03982420492869988 1.8983162806602076 226.75706288384708 102 94 83
1.0885705834117585 2.219924579163814 225.61639460055815 154 130 104
0.8955117882742487 1.1748962658877624 226.2026168000617 76 59 37
0.5775889418985415 2.8771403692227335 225.6995264459308 251 234 208
-0.4699766940084417 2.3907074947195395 226.83843092778915 163 152 130
1.3432605732787612 0.7644082886106477 226.013275786261 140 121 88
0.48877478847617417 2.638484265762795 225.8522445579024 168 152 127
0.9015836474808975 2.87512864906797 225.19281413899716 121 110 98
1.2138474275928963 2.4614213625673607 225.19455435103697 124 118 96
0.6421209795786146 0.5063046440669725 226.81796622080677 145 125 88
-0.3235640014334163 2.4749744299742624 226.7090308365931 52 43 28
0.22581757436420463 2.015995379719574 226.42892069587924 24 19 13
-0.41359153639630025 2.851101196649775 226.564833755424 182 170 148
0.057913565724115046 2.618647428587172 226.2529183201308 177 169 143
-0.5557167575214355 3.164200185954614 226.51368616604114 107 89 59
0.35836056933118166 2.664859161830049 225.9086948545527 33 26 20
0.15886178333950407 1.8930235649334988 226.55237140077358 185 174 155
0.3786961170528886 1.7816590642542158 226.0364312239731 146 107 71
0.36236656085031704 1.2654895631550844 226.56759756321802 94 82 64
1.0103172320912737 1.3275257183688756 226.02320038442394 102 89 72
1.267783945304777 2.61792100633214 224.93123674442757 74 67 62
0.6826980326241033 2.2012297679729302 225.8890089085862 162 147 124
1.1450150334551443 1.8113078104189444 225.45842330029643 64 55 45
1.0182623033556302 1.0200575541881747 226.2778232732965 220 180 128
1.0744134871383817 1.6050465920772055 225.64546966643152 222 207 181
0.3212378185067247 3.151743221005728 225.73454805612513 88 75 58
0.676883591601112 1.842416701711544 225.99934886217298 59 36 36
0.4059314411324467 3.055108676767726 225.81132205770643 83 63 39
0.5384232811794664 1.8347925990224738 225.90789081563676 132 95 58
0.5851782051543801 1.8059083283771762 225.99995275087116 184 161 146
1.080698700127029 2.2222078907432112 225.529795010768 97 85 63
0.16149438059899338 1.7460856838215886 225.84279471638018 54 43 44
0.08496477861376488 2.675393605549132 226.20427862710054 96 88 67
-0.28639597601771655 1.5856110161927188 225.09435031080886 89 59 51
0.7902575152137125 1.2755706959520368 226.3088652289659 199 191 169
-0.6347096509840651 3.3443004562606506 226.62408426470412 130 114 89
1.2376854741905274 1.1360648993437252 225.7470083730929 223 203 170
0.8988730300797398 1.392358295198814 226.19269137029053 75 55 36
0.11992904451431285 1.7790989454730182 226.63543115923713 208 195 176
0.7041712946858076 0.9616937106638227 226.43426095846146 156 142 116
0.10125926528204568 1.7781379661264465 225.49351832572546 88 98 108
0.7245241863274616 1.0103999396888892 226.514361349238 95 71 33
-0.14054256948374155 2.951090643479244 226.28827179126364 176 165 137
0.9043715092742535 1.578323170040183 225.85999425959403 218 209 188
0.12400958508749083 2.0924121425569244 226.2940630197931 162 146 140
1.3386263763308623 1.4054484070648285 225.49698326179126 105 90 76
0.7541212510303202 1.286533155264022 226.35564376531056 178 159 117
0.8949421493685638 2.5995220738844993 225.48328058972157 184 167 137
0.6319191034365004 3.1561072702235466 225.4426084725152 172 155 125
0.6351979250562734 2.5710128132867243 225.733649465994 116 94 72
1.0732394916385457 1.8676488670151616 225.83621143775764 36 18 3
1.2462786384132887 1.3242891700026822 225.89576955213903 46 34 21
0.654070785779368 2.8120241218169535 225.61109284790354 169 155 126
-0.5290293088313914 3.0649312490850766 226.59726617131508 64 58 42
-0.28990488730800756 2.2608317175379113 226.75674526312702 105 96 79
0.5578139847061497 1.5100848954656956 226.39137707420278 108 97 85
0.9844881230803405 2.7024017447056403 225.3257064855583 176 160 133
0.563122400853405 1.3532004990245592 226.37168071884244 97 90 67
0.14240281246347328 1.7883155490852807 225.5683155272061 25 25 20
1.5358415818166367 1.4458291273014576 225.53949519633886 122 106 82
0.5650309111442627 2.6131417327131556 225.78910943477007 85 69 57
1.2944774938976222 1.8352127714668347 225.61394390253267 71 54 38
1.3014631422360452 2.606714531925589 225.06830584498226 98 85 69
-0.7486597355589127 1.4149994983765144 227.5789417407942 118 102 79
-0.2468595617537642 0.9661620553295758 227.3483924740661 63 60 46
0.33191043233192186 2.800053598297194 225.8619787163372 100 86 59
1.0013057075244765 1.4877374515926258 226.04190284372783 89 73 39
0.3024707543425897 1.338320219608917 226.71846209097654 66 47 30
0.6314956521159347 1.6900187420781962 226.16234419069525 66 61 43
-0.24237627840309117 1.5316767591950227 225.34992173483346 251 244 216
-0.983717287425026 1.7629023855828083 227.66065513667166 161 144 114
0.5882089096335527 3.022110483148667 225.5924321395494 56 43 27
0.4326827192248934 2.7822537212885448 225.9108919253156 46 33 17
-0.16786488149448028 1.7722083653487664 225.19192413683444 203 194 166
0.1990788513963225 2.892670462650306 225.96662129446094 182 172 148
1.340155197724962 2.111699647651757 225.16502232506855 123 106 87
0.044469284994775864 1.2238565628065892 227.04935872594027 87 69 48
-0.15891574721725585 1.588671837454709 225.45952437632334 242 246 232
0.9997915473075045 1.3224710377885909 226.097000814038 84 67 42
1.151992805653862 0.7647703247657345 226.09048536596435 92 82 66
-0.34362490723301486 3.5042147755912527 226.1230886692086 105 87 70
-0.40765162546159195 2.234160405166141 226.9397000618432 147 123 95
-0.4357187554363411 3.108757299977812 226.51764217839417 124 114 94
0.4814712118266431 2.564677259726655 225.83911745684398 60 56 50
1.1317231444592064 1.4626429335172448 225.94564724788358 94 75 42
1.2881081326955959 1.553779715548578 225.79962631761896 185 145 84
0.48110094990060726 1.8392672515938793 225.9174182035863 137 114 76
1.663758815162393 1.7188026950935298 224.97408657506952 203 193 167
1.933867589829057 2.109124137507702 224.71072405393107 116 107 92
0.924038534453889 2.2625734703334768 225.69566447850713 42 29 16
0.732883729954909 3.036374541121553 225.43546100205845 72 59 40
0.14810139435669845 1.7626664830099164 225.91650752923678 219 153 136
0.7859696714399237 1.6316389232657054 225.9487553106766 213 207 184
1.0886425253408645 2.6283546424785458 225.38702366509872 134 102 55
0.8427597062969725 2.8215153681118212 225.47745478481067 210 168 108
0.5905438594651071 0.958528133730149 226.64802144939264 59 43 19
0.33886031880195383 1.6928966760280375 226.51016529548528 83 68 39
0.2708408348331163 1.5945316842875454 226.603332829789 110 92 77
1.4169839124078094 0.97356107322132 225.64528761321367 70 60 52
-0.18521114173984735 2.101542155872612 226.7419444409986 171 155 130
1.0852376604435803 1.0319620223663657 225.98011327717725 73 66 48
1.370104122025436 1.7392156979216191 225.56586925650834 241 219 178
0.13720014912490971 1.7852866689046218 226.06559468028442 84 48 41
-0.2481136407703702 0.5647367403005374 227.68244071959558 125 108 90
0.4291395783303199 3.2816928242408356 225.51464327805016 154 133 109
0.07750357367118836 1.7776547218052812 225.48578301237782 28 26 22
0.8710432092285875 1.7015689634786209 226.05450186120856 49 41 30
1.3739602776916497 1.7134970789519828 225.30749384090015 119 103 78
0.7380104080684324 1.281989840405711 226.39732406421965 64 46 24
0.8912599521338904 2.2578399884400238 225.69079939644806 228 207 176
0.40131665907519953 2.7264221651485365 225.8692923994968 169 156 139
1.0589174931372642 2.1543660856801 225.57971441996514 154 142 120
0.5373521649837509 1.6496358318177495 226.33245856972442 106 94 80
-0.3671620062456363 3.108998206956223 226.36943056225476 63 61 49
0.5857940388312843 3.1430293877171733 225.50369287968218 60 48 37
0.7295907975792878 2.314346781453944 225.81132603061542 178 162 131
1.0604486809806397 0.49724033416741276 226.3074756775505 105 90 79
0.8759362922024283 2.1128414061930467 225.77717147817876 97 84 66
-0.44109113132890726 2.358574248741746 226.78838047231315 76 64 52
0.6297205114324953 2.631988400133587 225.8241324883361 146 122 96
1.036900416089462 1.6825354331110687 225.85988163770296 67 60 39
1.1530169504218568 2.2081927362168043 225.4799945012286 188 176 152
-0.8388745007308619 1.6518353719502665 227.56949109211524 158 141 113
0.7485992457334555 0.9497693432229461 226.5361186985171 194 183 163
0.06864016996617299 1.761361064071547 226.72849065572862 176 165 143
1.4722700388163772 1.2159481402066292 225.65436119638557 117 97 70
1.2023941155108366 1.5531072123852074 225.80490439159504 108 91 71
1.2049470481236555 1.3622112753067628 225.95557312342754 227 188 129
-0.12774798422378814 1.6987465796790158 225.14588310543905 254 255 236
-0.1762905994216155 1.6352636669944476 225.31909179693073 228 210 167
1.6424461025058843 1.070266587378099 225.3924320122373 193 179 153
0.24182385118377459 2.791064550650861 225.98985188437865 140 130 105
1.0679730541204424 2.503461871649358 225.32477227319788 91 78 60
1.353644747203874 2.4766336096275445 224.92328029452554 212 200 175
0.6383988445457609 1.3257640563142208 226.3151109085901 129 113 88
-3.5833776963790984 17.26536290544126 211.20611024819738 244 246 243
1.179691753201537 1.3541982382131046 225.85497984923546 178 170 149
0.06643225591363774 1.6887134538937962 226.75128597836385 60 48 35
1.0324951993779035 1.9920629161472565 225.69098693369318 124 109 85
-0.4596057499656453 1.8449526682554396 225.3335904236337 90 82 71
1.0041133017452106 1.4950959614457326 225.77538511073098 124 112 89
0.2965190574297838 1.435786736560952 226.67757777411123 187 179 156
1.0352836662135014 2.3170876314472117 225.51438387748047 54 44 32
0.38711012750234985 3.237905300051045 225.595953753886 120 98 75
0.6292198117403672 1.153009688179751 226.3903098647742 130 119 98
0.5029158389444573 1.1764662187504318 226.54070363795708 141 124 99
-0.18852092720735017 1.8216820020978541 225.21005231527403 230 227 221
1.014025333109651 2.316626028309912 225.5416517287154 116 99 75
1.1006234363607037 2.449344257929544 225.30063016596122 97 89 70
-0.2827724603337839 3.001759923926297 226.35125357562032 58 50 34
1.8446400722990348 0.9191741786226338 225.56216975782684 70 56 43
1.2597393055460573 2.275049030507229 225.35281595915836 212 205 178
0.624527050569293 1.1675805012316551 226.52225588170393 140 130 106
-0.6364983037047858 1.4710536454708658 224.8724421846469 98 63 59
0.41785047345305426 1.6097974311347405 226.47890901067035 60 46 35
1.1435781009634742 1.2420758688901374 225.98856780523673 139 119 84
0.20042294143493808 1.7920703094664656 225.62131813834014 35 36 31
0.2091698944457771 1.3434735135825298 226.8113083242924 68 52 33
0.7411147634269075 2.5523222282668896 225.65928956528643 69 57 41
1.0124732873007327 0.9850265067357861 226.31485142564844 117 93 69
0.13064016383012364 1.8448849551861335 226.60282092772468 180 168 143
0.5402546240124088 1.2093399190587348 226.56992239797546 111 92 61
0.19732803694876322 1.7910349986807936 225.6394277852158 19 18 13
0.08949807437437132 1.7405902824040436 226.70748802538571 19 12 5
0.75046916496264 1.1871188620357964 226.33018994565288 125 107 86
0.7635335911605644 0.2680407967633156 226.8546726680002 140 121 88
-0.5180717737523981 1.2441653590695056 227.49171288840796 155 136 96
0.5484744483712759 2.761029866563767 225.72698262562326 186 175 147
-0.15813362182745533 2.691497499408132 226.39898305429978 158 146 128
1.5309931471614393 0.5792235522884174 225.77533573413817 62 53 44
1.098081348262055 2.2989218548489196 225.47120164207024 200 185 162
1.4569214324401192 1.0359207767638268 225.8664528659169 186 171 145
0.9898244972680195 1.5422467102116326 225.9299524570018 80 63 45
